ply
format ascii 1.0
comment VCGLIB generated
element vertex 1947
property float x
property float y
property float z
element face 0
property list uchar int vertex_indices
end_header
1.28934 10.5395 37.9001 
-5.76355 -0.296613 44.6905 
-17.4034 -5.06944 10.8368 
-2.43632 -9.97191 22.1236 
1.11202 -4.73942 45.1465 
5.13565 -1.41879 49.5519 
15.7678 -14.5767 1.86255 
9.53419 5.65563 17.2275 
0.756167 17.5683 24.4683 
0.286356 -4.97609 44.1052 
-9.59979 3.06895 22.6682 
13.8287 -13.2158 7.8506 
-20.9767 -7.57305 2.72877 
3.13187 -14.2 3.51982 
-11.6737 1.93382 17.263 
-18.168 -11.4908 15.4403 
0.572146 -6.1297 39.0293 
19.3577 -5.86798 5.1469 
1.03034 19.4492 19.2857 
-18.049 -13.4587 6.78169 
-14.9007 -7.65796 26.068 
0.83242 16.4695 26.5951 
-17.306 -2.69302 5.98008 
-8.87345 -2.98018 38.744 
-4.47213 9.69623 27.6272 
-0.651506 -13.4453 0 
-11.0046 0.357368 23.2807 
8.94908 11.3726 0 
-13.1183 -0.586376 17.3027 
1.8258 -9.62946 0 
-7.08041 3.03076 0 
16.2715 1.49884 0.699612 
-1.0331 10.8092 38.2831 
7.65236 -1.79292 40.785 
17.5883 -11.7838 14.1512 
14.3099 -4.91701 22.2894 
-7.05898 3.5809 31.2237 
-2.23444 16.054 22.1669 
-8.69259 14.3689 1.26523 
6.75837 9.98365 18.2831 
-1.8512 -5.68806 40.9725 
10.5457 7.37207 9.59692 
3.77506 0.865882 49.7101 
-12.0676 -6.22564 33.7126 
-0.722284 4.14181 54.1357 
12.0848 -12.4781 0 
-1.06905 11.8717 35.8085 
-7.62893 -4.90808 44.4044 
8.11033 9.03493 15.2186 
-3.10968 0.251462 53.5973 
-22.2113 -14.8861 0.500965 
-13.795 -0.0189517 0 
-6.09125 16.8733 5.66793 
-9.04763 3.5077 0 
17.3961 -14.8139 0.81903 
-23.3205 -14.8748 0.55083 
-2.08368 21.3472 11.0962 
-1.2644 1.31004 58.2999 
-12.8268 5.12212 5.85475 
-14.4409 0.633852 9.57838 
18.1703 -5.91888 9.78328 
4.69009 -3.20831 51.8834 
6.57402 18.3347 0.613257 
-14.2837 -9.52717 0 
-2.13629 16.8154 20.8658 
-7.96825 -6.69426 36.5452 
-14.8105 0.115776 9.30963 
-6.46481 -13.4162 6.96887 
-1.57812 -6.90959 35.5978 
19.8488 -13.5921 0 
8.25089 11.4106 9.45666 
-18.784 -14.5708 1.8885 
11.4223 -14.851 0.655419 
9.7033 3.51581 21.2907 
0.560363 8.07269 46.1048 
5.06585 8.58659 27.806 
17.3045 -4.14245 9.17441 
-15.6815 -14.5957 1.77885 
13.2372 6.10864 2.1203 
10.5924 -8.25707 29.6689 
-3.93573 -5.11617 43.4889 
-5.44361 0.464993 44.2341 
-10.6246 0.872045 23.5964 
19.244 -11.0779 17.0418 
13.0078 -2.28989 21.4714 
8.95417 -10.4817 19.8806 
0.613376 25.1766 8.27413 
-1.26971 -9.1603 25.6947 
-8.98535 4.33344 0 
-12.3827 -6.83847 33.8601 
14.7793 -5.86663 22.5899 
-0.933016 14.207 31.1893 
4.64175 -12.9914 0 
1.09936 -1.50415 59.3817 
-12.6949 3.91954 0 
6.33284 -10.2699 0 
-16.2544 -8.99937 0 
14.5177 -11.0801 17.2478 
8.20185 -8.46385 28.7591 
4.34036 22.3631 0 
4.32051 3.82018 0 
2.86784 2.47601 49.6249 
-8.53753 -13.0645 8.51609 
-3.3652 5.4919 0 
6.90547 -2.55672 45.3114 
-12.3685 7.40833 2.57131 
-3.03639 2.84649 48.1675 
-20.5271 -12.1862 12.3808 
1.74166 19.8992 15.5851 
-8.03202 -5.56624 0 
-14.1243 -10.7371 18.7568 
-6.60019 6.76304 25.9712 
17.6682 -4.50195 8.57935 
9.83028 3.68978 20.4241 
-8.51253 8.44339 0 
-5.56831 2.0595 40.251 
-4.48198 -13.3548 7.23868 
5.67066 -5.80774 0 
-1.09093 -12.534 0 
-2.5485 14.976 0 
-3.06442 7.81347 37.1334 
-15.1362 -7.74763 25.3682 
-21.0952 -9.0554 5.5384 
-14.188 5.17119 0.560012 
-0.946977 -12.5544 10.7606 
20.3613 -5.55028 0.623583 
-0.697024 5.50201 51.2396 
-3.75748 17.8718 12.3642 
-8.98957 5.47711 19.6955 
-2.48512 20.2818 11.9104 
-7.03113 0.524413 38.0541 
6.86628 15.4057 5.94351 
-2.95164 -2.73998 53.9441 
19.2823 -13.266 0 
2.21431 -6.90878 35.6014 
-4.85907 -4.72206 45.2229 
-8.17853 3.87321 26.3146 
-13.0964 2.74222 10.0632 
-7.38576 -7.10486 34.7386 
11.99 0.226727 0 
11.6081 -12.4383 11.2716 
10.9853 1.3871 21.0889 
17.3124 -0.719837 1.61449 
-13.5374 -10.581 19.4438 
2.77022 7.55859 38.8151 
4.0764 -4.36369 46.7997 
-15.8975 -1.75776 9.28944 
12.606 4.16886 8.79329 
-4.01193 -1.1918 53.3344 
7.01716 5.87049 0 
3.53314 -6.25875 0 
12.8202 -13.2816 7.56116 
-12.9799 5.99455 3.35202 
2.95662 -14.4215 2.54536 
19.5075 -14.3043 3.06121 
-12.8536 3.29428 9.77385 
6.89339 15.9029 4.74625 
-2.94757 20.2086 10.3094 
14.8006 -1.4639 0 
-0.520014 25.3096 0 
0.0431509 19.3986 0 
0.463858 24.9987 9.2353 
-1.72134 10.0315 0 
9.89265 -2.63607 34.1033 
-17.7713 -12.6119 10.5076 
-18.6042 -7.66135 11.9634 
8.37301 -9.94063 22.2612 
-10.3101 7.5868 10.0223 
-9.34161 4.83542 19.7658 
9.7458 -9.57773 23.858 
18.1193 -14.9207 0.34878 
-8.74218 -6.75921 36.2595 
17.8119 -9.50747 0 
22.4921 -13.6073 6.12785 
3.99402 -14.0223 4.30181 
8.55872 6.20578 19.7342 
15.5017 -12.4633 11.1616 
-3.06619 23.2881 3.0824 
2.09927 23.5789 6.12714 
-14.5538 -13.1293 8.23087 
-13.6248 6.10813 0.644805 
-13.6025 -0.822107 15.976 
14.0946 -6.30287 26.1586 
0.173225 11.0747 40.9757 
9.04053 9.27154 11.1535 
-5.39313 -1.12759 47.9301 
-3.04072 -5.48969 41.8454 
-4.34077 15.3031 15.7927 
8.96829 6.79606 16.8749 
15.6572 -14.6842 0 
-5.16038 0.424739 45.4019 
-0.802636 17.691 24.0215 
8.69539 -11.6148 14.895 
22.8306 -12.2846 6.02966 
2.64801 11.3144 31.0181 
-6.30687 10.5897 18.6702 
-2.4863 16.3108 20.6423 
12.1107 -0.831257 21.6808 
-0.0277297 -1.89599 57.6576 
-8.30767 -11.1129 17.1031 
-17.3618 -7.87899 17.1763 
-17.6613 -7.46868 0 
16.2134 -5.86755 17.1272 
5.31442 -1.99178 50.1313 
10.3575 -13.7873 5.33599 
14.3249 2.46241 5.99746 
7.55142 -10.76 18.656 
-3.51801 12.9332 24.1415 
-3.25504 17.1447 15.8783 
2.37517 8.92178 37.3215 
8.9281 13.061 3.24513 
-8.94548 0.0911179 0 
-15.9604 -10.7111 18.8713 
0.47744 -4.77801 44.9767 
8.71333 -5.32302 42.5787 
12.8085 1.60268 13.6671 
0.25308 28.9943 1.24812 
4.69017 -0.601928 49.4523 
-8.87857 13.0911 0 
-6.03069 7.66096 26.1659 
0.47024 5.62617 51.8306 
-5.36489 1.28782 42.7238 
12.0234 7.87261 2.86498 
-1.20511 4.60152 0 
14.9934 -2.58771 14.5603 
4.44586 0.863431 47.1595 
6.89944 -11.7496 14.3019 
3.24019 -5.68066 41.0051 
5.90393 -8.56812 28.3003 
-0.34714 2.69154 58.7558 
-2.41907 -10.8931 18.0703 
-5.58611 -13.8164 5.20764 
4.68943 -4.07844 48.0549 
8.30262 -14.8508 0.656573 
-16.6734 -1.32065 5.3713 
-17.3725 -9.59488 20.9107 
6.15803 14.0423 0 
-5.79696 -10.9007 18.0368 
-19.2389 -4.2036 1.93795 
15.6715 -9.11099 25.9116 
-6.73334 3.62829 32.3603 
-8.26262 12.8249 0 
-22.367 -13.3893 7.08727 
8.89736 10.5926 0 
-3.68016 -0.207606 52.4334 
-8.06876 -4.91113 0 
17.8984 -2.69755 3.73259 
-21.0816 -12.6287 10.4335 
14.9644 -4.44293 18.7523 
-20.5657 -9.11276 7.6824 
1.91334 26.3737 0.687041 
-17.7266 -6.20092 0 
0.807589 23.8307 10.4951 
-19.3828 -13.7924 5.31341 
-5.13104 -12.044 13.0062 
-0.695761 -1.18585 60.7822 
-12.6155 -12.698 10.1288 
19.755 -14.5297 2.06939 
21.0765 -9.59375 6.79384 
25.3483 -14.6322 1.60111 
-6.08944 15.4683 0 
4.5182 14.7368 16.3625 
18.5465 -5.82463 0 
5.77104 16.11 8.56736 
-7.32389 16.9635 0.772643 
-13.743 -7.63207 30.4228 
-3.75733 17.8866 0 
-11.0514 -4.16654 33.0549 
-0.444064 -12.7847 9.74737 
8.85067 10.8788 8.34111 
-14.8645 -3.4082 0 
-1.50376 -14.7162 1.24882 
16.3043 -1.47771 7.12325 
20.3405 -5.33994 0 
-6.66437 1.26983 37.8117 
4.35811 17.1422 0 
3.90022 -0.308126 51.8161 
-0.745692 19.291 0 
-2.30998 12.7115 29.2326 
-4.72435 15.3003 14.3372 
-4.69789 9.70032 26.7579 
-9.59509 0.0268568 0 
1.96111 -10.8286 18.354 
6.29833 -11.6414 14.778 
10.4866 -2.83015 0 
-9.08982 3.75901 23.0933 
-19.3475 -14.2551 0 
-11.4062 -6.77886 36.173 
-15.1892 -2.31881 13.2229 
16.8012 -1.59972 5.49839 
10.9317 -2.1565 29.0888 
-4.85909 11.9718 21.1464 
-11.8343 -7.71845 32.0388 
-0.649051 -11.2768 16.3822 
-1.46572 -14.5993 0 
-0.510461 -7.04921 0 
-18.8167 -9.58667 0 
-1.69707 3.4719 0 
15.1685 -4.51565 18.1347 
-2.6815 -12.308 11.845 
2.53002 5.22599 0 
4.57305 1.21694 45.8971 
-8.81071 -8.33522 29.325 
3.64745 -10.8812 18.1227 
5.00865 -5.69115 40.9589 
9.44782 0.0343256 29.9235 
-8.76967 6.42493 0 
-3.40497 21.2605 0 
1.21611 26.3124 3.4787 
-8.05779 -13.3215 7.38541 
-4.66723 14.0996 17.1964 
-0.980838 13.4807 32.605 
-14.1676 2.42797 0 
8.10545 -13.0065 8.77159 
-7.4164 13.1293 8.85519 
0.882383 -3.81968 49.1934 
-10.7411 -4.53592 0 
-15.8238 -8.47612 24.3506 
-6.10974 2.74928 36.6704 
-8.23675 13.7552 4.35236 
-14.4466 -3.91264 0 
15.0297 -8.64978 27.7586 
0.413931 26.144 0 
4.38278 6.85858 34.2105 
-4.06924 2.95899 0 
16.7371 -12.639 10.3882 
-19.8536 -6.90447 5.53742 
21.4225 -9.61062 5.5128 
-0.680814 -1.86759 57.7826 
0.136006 -14.1077 3.92621 
-0.723158 2.80396 57.0757 
-1.16189 19.6948 18.244 
-9.50817 8.37686 11.3399 
-0.972119 14.2163 0 
9.17917 4.77271 20.5227 
-12.5152 -14.7198 1.23287 
-1.15584 -7.92324 31.1377 
-3.87386 -7.70234 32.1097 
-1.6706 0.724074 58.0412 
-0.781299 3.47048 55.3878 
-7.28823 6.90809 23.0303 
1.38645 15.2148 27.2444 
-2.00074 6.72789 43.5748 
-3.73663 6.12946 38.2767 
4.1749 3.40068 42.61 
3.2777 -1.08527 55.8979 
2.80002 6.85842 40.242 
-3.40642 -5.84093 40.2999 
15.3422 -11.5504 15.1784 
1.86168 6.17887 0 
3.89575 -5.56972 41.4932 
14.5989 -8.91658 26.7671 
3.69244 -2.55004 54.7798 
-9.84861 -8.57165 28.2847 
6.65082 17.3052 2.58554 
-11.604 -3.41568 0 
0.621873 8.35776 45.2433 
2.52696 -12.7438 9.92737 
5.19254 19.2303 3.90713 
11.6455 -8.62148 28.0655 
-18.8079 -12.4209 0 
13.1397 -12.9593 8.9789 
15.4727 -1.61541 10.5949 
-5.31241 -3.08284 52.4355 
-1.01866 -8.07441 30.4726 
7.28728 17.0954 0.621949 
-18.7981 -4.37511 3.99505 
5.20721 -9.28149 25.1615 
-7.26868 2.30766 0 
4.74157 -14.0364 4.2397 
-16.2627 -1.93953 8.2976 
21.8995 -9.06531 2.49541 
-2.28376 22.8297 7.07245 
-1.42649 5.33875 48.8191 
-2.88757 2.46717 49.5691 
-7.44475 -2.24041 42.5606 
-12.2846 -10.9514 17.814 
0.526805 18.154 24.0539 
1.03088 -6.97577 35.3066 
5.8641 9.30321 23.1877 
11.9175 5.46611 8.5626 
-20.2613 -9.24678 9.13689 
20.7507 -8.19955 4.96811 
-18.0697 -14.9752 0.10927 
-7.8375 -6.7234 0 
4.37347 8.03741 31.6525 
11.5864 -6.63132 36.4389 
10.7938 -10.1877 21.1743 
13.5698 -10.0054 21.9762 
-8.19227 -14.0552 4.15691 
8.13346 -6.32224 38.1822 
9.38324 2.882 0 
5.12055 6.92842 31.2456 
1.08491 -6.54136 37.218 
-22.0149 -8.8047 1.4823 
13.2584 -6.7754 0 
18.3338 -6.45273 10.3349 
-0.832913 5.56544 50.5822 
4.81594 16.5988 11.1315 
1.64517 22.1573 10.985 
20.3379 -9.35702 9.08771 
9.38585 -10.9294 17.9106 
4.47873 5.21707 37.4562 
5.10128 10.0608 24.4277 
-9.21267 -7.36248 33.6051 
-2.39732 17.8823 17.5239 
3.16095 24.4299 0.209484 
7.04927 9.71807 17.7589 
-9.9632 -0.301129 28.6976 
4.03852 22.4283 1.26887 
-13.1942 -0.413552 16.6331 
2.54401 9.70666 34.9514 
-11.0814 -2.65058 0 
5.21517 0.154754 45.7871 
1.38509 22.9503 10.2315 
-4.08416 -4.95242 44.2094 
-5.98413 13.3011 0 
-6.42153 6.4578 27.3235 
-5.76287 5.47827 0 
12.5503 -8.03047 30.6659 
-1.6634 -2.40913 55.3998 
-4.5651 -5.5802 41.4471 
-2.32978 -3.69667 0 
-3.54712 -8.03395 0 
-2.33377 -11.3171 16.205 
11.4599 7.12405 6.65918 
-3.18571 -0.935301 55.9185 
-1.5347 17.6763 21.2641 
-3.2431 14.7663 21.1563 
-4.01179 -1.7445 0 
-6.72353 3.1159 33.5249 
-0.829751 -6.89524 35.661 
21.4959 -10.8898 8.0473 
3.19721 10.9026 29.8312 
9.63222 -4.72081 39.6821 
1.62887 -3.70122 0 
-1.94525 -10.7447 0 
-6.79219 -12.4013 11.4344 
-10.2863 3.77968 18.4887 
-19.5655 -13.1367 8.19872 
-4.67667 -1.82758 0 
-4.04949 4.4479 40.784 
-18.9961 -12.7827 9.75607 
-1.57127 -4.35212 46.8507 
10.1709 -2.23806 0 
-10.1525 5.2634 15.7343 
-5.78643 2.7878 0 
-8.2742 11.682 8.77071 
-0.050642 21.086 19.4179 
2.10338 23.733 0 
9.24339 -11.8172 14.0042 
-6.02917 -10.5168 19.726 
9.08093 8.92057 11.7718 
-10.3785 -2.55786 0 
2.26881 -11.3866 15.8988 
10.9248 -0.64008 25.7793 
14.8007 -4.5426 19.5954 
20.6006 -10.6108 0 
9.3688 12.4121 2.99349 
9.60299 -5.87493 0 
1.07351 -6.70288 36.5073 
0.116828 1.17822 62.9627 
1.49571 2.50156 54.7971 
7.6708 14.9148 3.95765 
17.413 -3.10818 6.48539 
-22.5693 -12.4623 7.41648 
-10.8733 -7.39984 33.4407 
-13.3405 -11.973 0 
6.57466 11.4505 15.756 
2.81741 19.6564 12.0201 
2.55697 -5.87531 40.1487 
1.71655 -2.83444 0 
-15.8353 -10.009 0 
-4.54446 -12.4483 11.2275 
7.65603 -1.01445 39.0584 
11.2801 -8.20993 29.8763 
-4.46921 -6.61255 0 
12.1507 -3.74027 27.9282 
3.4342 5.32026 41.2094 
5.7024 -14.5692 0 
-19.2956 -8.24608 10.6152 
-17.0292 -11.1903 16.7625 
5.59124 0.957497 42.588 
-13.9331 4.94584 0 
-0.592924 10.9261 39.7032 
-1.82097 -8.80919 27.2396 
-14.9927 -6.51326 23.1991 
16.8826 -7.93404 19.1237 
14.8886 -12.4125 11.3849 
21.4357 -11.9458 10.5999 
9.8128 2.01861 24.1673 
-9.86824 8.66402 9.33611 
6.2672 13.6679 12.0494 
-8.05405 5.90443 22.3202 
6.30807 10.1083 19.7247 
3.11581 17.3966 0 
-1.7989 1.8234 55.1338 
-3.34057 -14.1095 3.91817 
-0.783427 11.7233 37.2236 
10.6374 6.21145 0 
2.29656 4.27114 47.8524 
3.16408 -10.7417 18.7364 
0.333738 -8.89444 26.8645 
13.1859 -11.7756 14.1872 
14.3978 -7.75472 0 
-1.72765 -14.1263 3.84446 
11.3426 -9.12078 25.8686 
13.1857 -6.06626 29.1016 
14.6831 -8.12414 27.923 
9.6122 -0.699762 30.9121 
-3.6227 14.4197 20.4724 
1.42235 -8.68334 27.7933 
-15.5325 -2.85468 13.0934 
-5.24989 6.88519 0 
3.45916 -11.8317 13.9403 
-0.0369437 1.03068 63.5917 
-24.0703 -14.9954 0.0202203 
8.83506 -12.9671 8.94465 
-2.14243 24.2178 4.557 
1.4734 -10.9555 17.7957 
-12.4248 -13.9083 4.80331 
-12.3895 -0.227974 0 
8.79951 -13.2876 7.53458 
2.45496 -3.40821 51.0039 
-8.49426 -5.18123 43.2026 
-0.59182 7.85258 46.4692 
3.925 -11.1611 16.8913 
0.466362 -12.5503 10.7786 
-18.0599 -12.2173 12.2439 
3.30138 13.4595 23.8092 
6.36399 8.93664 22.0893 
-2.16443 -6.22425 0 
-6.20765 3.4387 34.7805 
13.2151 3.05027 8.93298 
-3.75324 -5.55538 41.5563 
17.707 -14.2343 3.36916 
-8.60302 7.75268 16.1622 
-5.00638 -3.26926 51.6152 
-6.10602 5.14303 31.4183 
-21.8843 -9.57541 3.67571 
6.09513 2.14045 0 
13.7444 -13.9591 4.58005 
0.821948 21.1781 16.2762 
9.65936 -1.65448 32.8327 
-5.28226 -10.6083 19.3237 
10.358 6.47445 12.287 
-15.0931 1.19537 5.85765 
-5.3717 -6.63604 36.8014 
3.02857 21.7405 0 
17.7979 -6.394 12.2477 
-3.40827 -9.78184 22.9599 
-4.0508 -5.41113 42.191 
3.26786 6.03552 0 
7.51907 7.20609 21.4951 
1.37544 -5.22364 0 
21.2149 -10.6678 8.62952 
-9.93213 -7.3019 33.8717 
11.8343 9.13513 0.807946 
-4.12897 -6.48724 37.4561 
-0.742903 21.4582 15.9612 
-15.5047 -0.0519564 0 
1.34926 13.5689 31.0071 
3.68502 5.26035 40.3854 
-12.5875 -12.5513 10.7743 
-11.6773 0.636353 20.1035 
3.71897 -9.37628 24.7444 
1.22026 0.535167 0 
10.6473 10.0963 3.21644 
-4.66995 -12.1484 12.547 
-2.61548 19.3796 0 
13.0098 3.60763 8.4894 
10.1891 -3.73035 35.3809 
9.21395 -11.4469 0 
8.49631 -7.68612 0 
6.55131 12.1218 0 
9.82602 -11.5536 15.1643 
0.774793 11.5668 0 
-3.03164 23.7452 2.20854 
-5.08142 16.6787 9.94409 
2.97362 -11.695 14.5422 
-4.63183 11.5983 0 
11.9641 5.93414 0 
3.78939 11.7469 25.7174 
6.60566 9.60569 0 
7.37705 15.8236 3.07764 
-9.721 -2.513 34.4866 
13.7977 -6.91638 28.6397 
-17.4496 -5.68948 12.0251 
-0.660804 24.5412 0 
0.259183 -7.40935 33.3988 
-11.7244 -5.61744 33.6824 
-7.61001 -5.12994 43.4283 
-16.5508 -13.8311 5.14309 
1.22526 12.7861 33.2018 
-6.55502 1.62182 0 
-5.28691 12.7224 17.8649 
-2.20439 11.6082 0 
7.66663 6.73318 21.9732 
11.8437 -4.38798 30.5229 
-19.75 -10.995 0 
21.1287 -11.2685 10.2794 
6.94372 7.88573 0 
8.47918 -6.49066 37.4411 
10.8384 6.76961 9.80701 
-3.71811 21.1318 5.34209 
-4.87826 21.5051 0.100067 
-20.0921 -10.5841 12.7237 
-13.3754 -10.9938 17.6274 
8.23796 0.142701 34.2952 
0.801598 27.5361 2.36602 
-5.15529 20.2329 1.84344 
12.6275 -13.5273 0 
-23.217 -11.255 2.29231 
6.79773 -9.98136 22.082 
-19.0548 -14.1625 3.68507 
0.0807279 25.1194 10.4297 
0.0419818 6.54242 51.4467 
9.03002 -9.55396 23.9626 
-2.52547 21.2875 9.54406 
8.32983 -1.59962 37.7782 
16.674 -9.68011 0 
-1.04097 -7.5409 32.82 
12.7546 -9.3172 25.0043 
1.01749 -5.61596 41.2898 
12.0021 -6.08859 33.6608 
-7.03544 10.7992 15.4332 
9.94885 11.4889 0 
-9.17919 -3.21472 38.095 
13.7894 -4.36606 23.0605 
0.038273 7.20871 49.995 
2.48511 22.7706 6.43514 
-6.20741 -2.40131 47.6295 
4.1275 5.26049 38.699 
9.50644 -8.14938 30.1427 
14.6363 -1.06764 12.5771 
-20.1645 -10.2465 11.7052 
-4.57416 -4.0543 48.1611 
5.26906 1.27776 43.1111 
13.5082 5.31963 2.82374 
1.51019 12.2925 0 
-7.51489 1.40202 34.28 
-13.5434 -5.41903 26.3146 
1.74283 24.3209 5.85295 
12.3059 1.47181 15.8702 
11.0789 -10.8555 0 
20.2835 -14.8858 0 
1.478 19.6805 17.071 
9.69289 9.22796 8.7636 
1.26947 -8.07483 30.4708 
-11.2741 9.09242 0 
-13.1725 -14.2655 0 
3.97756 -11.1496 0 
2.8326 1.77778 51.2952 
-8.33231 2.56148 28.6144 
-15.4046 1.61463 0 
3.1027 1.80797 50.1996 
-18.0257 -10.0792 19.4869 
-2.21425 21.535 10.1855 
-13.6212 -0.834335 0 
6.69025 -3.02833 47.169 
1.63295 2.71458 53.8056 
-8.99589 10.0138 9.69064 
-0.357734 18.5444 23.8392 
-9.01091 -9.92354 22.3364 
-4.23056 -11.9573 13.388 
-7.35809 9.4486 17.175 
-1.85205 -6.82256 0 
9.18167 12.3917 3.75136 
-12.9425 -6.03305 29.955 
3.49716 6.48446 38.4082 
-15.9036 0.578671 4.12595 
-10.7004 -8.23204 0 
20.2079 -14.1582 0 
6.09449 7.13581 27.0781 
-12.4177 6.49027 0 
7.54522 6.55588 22.8259 
-4.05449 17.7406 11.521 
-12.8666 -6.55091 31.3836 
3.71575 14.5432 19.8462 
-14.2725 -1.65641 15.2586 
1.65718 17.5609 21.0512 
24.8944 -13.8334 1.57324 
0.363343 -2.73447 0 
-12.7867 -8.33993 29.3043 
18.6341 -4.0458 0 
4.48553 17.4828 10.4457 
14.517 1.64731 7.05861 
10.6359 -8.69379 0 
4.30677 2.69826 43.6528 
-4.43796 -13.2025 7.90898 
-5.78315 -1.61174 47.5091 
-15.1368 -8.41228 26.828 
5.21239 -5.90507 40.0177 
-11.2431 -8.32012 29.3915 
15.3801 -6.51584 21.7287 
-2.25147 -14.8717 0.564549 
2.64179 24.5035 2.02563 
-10.3258 -1.60727 30.1895 
2.25538 3.16503 0 
-2.24732 -7.4957 0 
-14.8474 -8.99173 0 
-6.78056 4.14225 31.0496 
-8.53022 2.69016 27.5771 
-14.4881 -11.6309 14.8241 
-12.1592 -3.9298 28.3126 
4.71306 19.1776 5.85018 
14.5693 1.85739 6.39709 
-9.89398 4.36558 18.6946 
3.39203 11.7672 0 
2.23308 19.2952 15.0414 
9.74857 6.824 0 
10.0844 -10.1176 21.4827 
2.62361 -0.996675 0 
23.1966 -13.4233 6.93767 
0.866104 21.4866 15.4292 
16.2508 -1.7059 0 
7.90768 1.31556 0 
-0.514164 1.71248 0 
14.6112 -10.4031 20.2264 
-6.66681 -6.92645 35.5236 
-1.95925 -1.15941 60.8986 
-13.1646 -8.19967 29.9214 
-6.50476 8.4157 22.699 
17.0901 -13.2325 7.77712 
8.70485 -12.6576 10.3067 
-3.25928 -11.0849 17.2266 
5.54367 -14.5702 1.89103 
-1.55153 -12.4675 11.1428 
2.20613 10.8615 33.6983 
6.32631 -4.41695 0 
-15.0244 -14.6286 1.63429 
5.85376 -3.82671 49.1625 
14.3064 -9.99991 22.0004 
13.0526 4.47316 6.42196 
2.56785 6.34033 42.2664 
-10.1136 -12.0144 13.1365 
-9.50601 0.7937 0 
-9.63085 -14.1201 0 
6.9666 -10.8704 18.1702 
-14.1912 0.799646 10.1652 
-3.04767 -1.06441 56.7285 
18.7648 -10.7786 18.2095 
9.50329 5.25406 0 
3.11962 22.7613 0 
-6.94337 17.6279 0.760755 
7.6636 -8.56705 28.305 
-1.32014 -6.3784 37.935 
7.9946 -14.7244 1.21245 
-15.1486 -8.70934 27.4365 
1.03628 -12.6724 10.2414 
6.93099 -8.52889 28.4729 
9.09442 -9.90517 22.4173 
7.61209 0.767778 35.3049 
2.05621 -0.433783 0 
-1.04562 -4.03028 48.2667 
-0.942109 -0.994414 61.6246 
-11.607 -9.13615 25.8009 
0.670883 19.964 19.5228 
8.90296 1.18363 29.4712 
-5.12832 -1.44589 49.6394 
9.28691 -11.0894 17.2067 
11.6888 -8.0469 30.5937 
-14.0641 0.657888 10.9611 
20.8512 -7.8254 3.76232 
-9.75501 -9.87899 22.5324 
-20.0049 -13.5902 6.20296 
2.43148 24.347 0 
6.05996 4.28063 33.491 
21.5066 -14.0425 0 
-15.0061 2.15328 4.0817 
24.1768 -12.0362 0.353564 
1.68451 -0.903938 61.5698 
-2.51586 19.4037 13.7253 
-24.2243 -12.9211 2.11935 
-13.313 -5.42018 27.1951 
0.109697 21.5049 0 
16.7122 -13.7386 5.5503 
-3.32352 20.9761 7.18827 
10.8457 -7.03056 35.0656 
-5.9713 -8.53038 28.4663 
10.0664 8.11576 9.78706 
6.71616 12.6691 12.536 
2.50935 11.8065 30.4638 
-5.16937 6.47395 32.0594 
10.6155 -3.36931 32.962 
3.92442 4.18994 41.8281 
-0.830064 -13.4548 6.79889 
-14.0084 -8.72542 0 
9.80702 -2.928 0 
-19.2187 -14.454 2.40257 
-19.3788 -8.66383 11.2171 
2.82571 16.5016 0 
-1.41995 19.5216 17.6417 
-10.0044 8.16851 9.90746 
5.08617 17.0854 0 
19.6771 -9.11065 11.0636 
-14.1663 -14.9426 0.252565 
-4.22441 5.72502 37.3078 
14.7816 -9.41164 24.5888 
-12.0832 -12.9572 0 
3.57083 6.97225 37.0543 
2.00551 8.00225 40.753 
-9.18342 10.3923 8.14333 
-8.99668 5.19177 20.2962 
-11.109 -12.9655 8.95201 
-10.7956 -4.71809 35.2429 
1.11814 -5.38354 42.3124 
-4.56352 -11.764 14.2385 
0.661207 -4.82883 0 
-7.97641 9.0318 0 
-13.5193 -13.7875 5.3348 
9.92269 -0.0532007 0 
-9.84896 -7.05107 34.9753 
-19.3178 -6.86511 7.49248 
-13.2272 4.58848 0 
16.8465 -8.72582 21.0031 
4.84432 -4.79506 44.9018 
-3.17026 -7.72031 32.0306 
6.68611 16.8206 0 
-1.38641 5.74828 48.0709 
1.863 0.362396 58.1037 
0.60474 11.2872 38.8639 
-20.6421 -10.4133 0 
3.98576 -8.14941 0 
13.1471 5.225 4.40766 
4.70079 10.7371 24.466 
11.7483 0.858749 19.3438 
-14.9106 -3.18024 16.1796 
10.3799 3.92812 17.8052 
-3.63434 -2.70565 54.0951 
5.78123 4.91247 33.1631 
17.2669 -5.75336 12.8617 
-21.1514 -6.94303 0.677027 
-0.0690107 12.7607 0 
-17.0502 -9.33066 0 
10.4138 -8.08867 30.4099 
7.67013 12.8561 0 
-1.54175 4.58663 50.0346 
3.03696 3.25285 47.2714 
3.72251 -12.9094 9.19857 
18.6497 -7.92963 12.3803 
9.29923 11.2372 5.84327 
-21.199 -8.14602 0 
-11.5324 -5.08687 33.2467 
-7.00491 -5.07912 43.6519 
15.2522 -6.92543 23.1174 
-15.4191 -2.05805 0 
21.2689 -13.5605 6.33401 
12.4133 -3.64453 26.7171 
2.74604 21.2425 8.80264 
-7.69124 6.44545 22.5125 
-0.201804 28.4312 2.68245 
-3.09545 -2.97457 52.9119 
-16.9094 -10.9023 0 
3.3856 13.7472 22.8554 
-0.507353 18.6895 22.9498 
-19.9935 -13.8607 5.01292 
-13.8654 -7.17905 28.9597 
-3.03745 -11.6351 14.8058 
-14.7869 0.0818598 0 
19.4648 -4.05944 0.759936 
-6.77808 5.19389 28.7455 
-22.0283 -13.9353 4.68462 
-1.53367 -9.42848 24.5147 
-9.80632 5.33794 16.8895 
15.8895 -2.21099 10.3169 
-14.9358 -3.77838 17.3992 
-7.49815 -8.5761 28.2651 
2.40896 13.4122 27.3139 
-5.36293 10.175 23.1795 
8.64736 -8.92728 26.72 
5.73669 16.8054 0 
7.97785 3.97778 0 
-6.3934 2.18055 36.8407 
-19.8504 -6.58119 4.83862 
3.13311 8.58537 35.1734 
7.02199 -9.27222 25.2022 
-14.7343 3.13262 0 
-4.84531 7.47716 31.0871 
6.12179 14.3924 11.0096 
1.63636 19.7412 16.334 
-17.5282 -11.3884 15.891 
2.79049 7.36019 0 
17.3817 -6.84129 14.8178 
10.761 -7.35246 33.6492 
16.0854 -11.8972 13.6525 
3.11881 4.69889 0 
6.53544 -8.89504 26.8618 
5.51766 12.1306 0 
-2.56168 18.6349 15.2419 
11.9975 1.54656 16.8809 
0.024843 5.40164 54.0217 
-19.5071 -6.39206 5.73053 
11.7785 -12.2343 12.169 
-9.28006 -13.2583 7.66358 
5.26207 -13.759 5.4604 
24.7687 -14.3866 2.69905 
-10.398 0.739356 0 
10.646 -12.9439 0 
-4.17894 -12.3291 11.7521 
8.74538 -7.69044 32.1621 
0.994431 14.4629 0 
-12.6423 -13.5244 6.49251 
-0.0491766 3.96806 57.0829 
1.02461 15.9223 27.0666 
9.6273 -14.2307 3.38486 
-10.6219 -6.57402 37.0743 
-1.01153 9.79305 40.6008 
-13.0285 -5.87534 29.2803 
-3.9619 -7.15442 0 
2.00876 -8.80172 27.2724 
2.0452 5.62906 45.8228 
8.48845 -4.95054 44.2176 
12.4418 8.22397 0 
-8.23352 -12.3523 11.6497 
1.77619 7.94175 41.7599 
16.9107 -7.68911 18.4776 
-16.5868 -6.55526 17.2174 
-20.3058 -12.3653 11.5925 
-1.77436 10.8108 35.455 
10.5118 -9.4336 0 
9.37733 12.1467 0 
17.381 -9.96624 21.6952 
15.4647 2.92155 0.644299 
11.013 0.88915 22.0788 
-18.5094 -4.17788 4.66114 
13.9559 -7.99716 30.4147 
-10.1906 10.2918 4.52642 
2.39575 17.0496 19.3619 
-19.7659 -7.63573 7.48032 
-20.5753 -7.79893 0 
10.732 -3.97627 33.8534 
-6.33328 0.742172 40.2342 
-0.159829 23.0429 14.6965 
-6.61304 -7.83269 0 
6.57924 0.0232716 0 
4.33135 -6.9267 0 
24.0845 -14.9679 0 
8.76099 -10.1075 0 
-2.63923 17.1822 18.1424 
7.87949 -2.37317 41.1961 
5.98955 8.81191 23.7905 
19.8485 -6.02358 0 
-5.67689 18.342 4.01581 
19.2128 -7.67677 9.6784 
-13.4099 -6.56379 29.3416 
3.82957 22.9306 0 
-6.11061 8.43408 24.1605 
24.429 -14.1249 3.85043 
2.37848 13.027 28.2773 
9.30706 -10.0783 21.6553 
-14.4423 -5.64558 23.3878 
12.1262 -1.6691 23.4648 
9.39872 -14.4916 2.23702 
-0.713278 14.0967 32.2692 
-5.30713 5.09751 34.5626 
-0.970233 22.9184 11.8825 
19.1983 -4.44448 2.62236 
4.90281 1.81417 43.3266 
10.5113 -10.756 18.6737 
-15.1207 -0.942441 10.4557 
2.85659 -0.594302 56.4224 
6.32632 -10.0813 21.6425 
7.07747 14.077 8.06189 
-9.29359 7.1963 14.7548 
12.2599 -11.5152 15.3332 
-17.1536 -0.349713 1.40548 
-0.267339 -8.18411 29.9899 
-1.68009 -3.99008 48.4437 
9.43602 -14.7675 1.02303 
13.2861 -3.36376 0 
-9.67767 -0.408765 30.0224 
15.5698 -14.7425 1.13307 
-7.35505 -5.38045 0 
24.0466 -12.261 1.34438 
-12.8059 3.92393 8.57016 
9.2736 -10.3361 20.5212 
4.8091 19.3155 0 
2.77158 24.0582 2.51075 
13.2952 0.586155 0 
-3.82107 18.8198 10.0362 
-17.7136 -14.3272 2.96044 
-7.34472 -11.2469 16.5138 
-14.7636 3.02273 3.09324 
-2.4629 5.3719 0 
-14.8141 -11.8593 13.8191 
-10.136 5.89743 14.4022 
-4.46903 12.3732 21.7497 
-2.88413 18.2887 14.7749 
-20.491 -10.5581 11.1467 
10.1846 7.54314 10.5966 
-1.39444 26.41 0 
-19.088 -8.79163 12.6066 
9.4324 8.39604 11.5864 
-5.30072 -7.08029 34.8467 
6.61551 -9.40136 24.634 
-1.80055 -12.6198 0 
11.9317 -8.22295 29.819 
6.84302 -11.5242 15.2934 
-1.90259 -9.28898 25.1285 
-14.1813 -5.85279 0 
10.3371 -9.4263 24.5243 
-13.9227 0.1006 12.7261 
-4.70719 0.309805 0 
-17.2022 -12.4962 11.0168 
-0.446641 -7.43077 33.3046 
0.346747 8.14565 46.7583 
-5.45523 -4.91084 44.3923 
-7.77201 13.4028 6.89857 
-10.561 2.24173 20.8254 
20.195 -8.17897 0 
2.58814 -4.5618 45.9281 
18.5951 -14.1261 3.84514 
-1.11861 9.95819 39.8295 
-6.5765 10.5615 17.7049 
19.9872 -4.67432 0.122051 
-10.7225 -13.9096 4.79789 
15.2645 -6.67249 22.5141 
-3.27719 10.0697 31.3588 
-8.42937 0.545903 0 
2.37063 21.3862 9.91709 
-1.29974 7.89307 43.6826 
6.81067 6.48875 25.7726 
2.37878 13.9088 26.3362 
9.19196 4.16083 21.8201 
-4.0854 13.7092 20.2723 
8.47795 7.48717 0 
22.4898 -13.3656 7.19149 
2.66264 1.69113 0 
3.66148 10.5372 28.866 
6.1588 -1.11412 44.9829 
21.7426 -14.3437 2.88751 
-8.74611 -9.46476 24.3551 
-1.54501 -6.75423 36.2814 
8.46323 12.541 6.16047 
-5.99563 -10.719 18.8366 
21.1378 -11.0131 0 
-0.429503 -10.7711 18.6071 
-2.46009 8.17601 38.6386 
-1.6858 -7.58644 32.6197 
-10.1748 1.4239 0 
-5.49966 2.79655 38.8911 
-5.05698 8.6009 0 
-5.18651 16.1705 10.6616 
-2.41792 -3.9473 48.6319 
15.0017 -8.39112 0 
-14.9018 -10.6747 19.0315 
-21.6638 -8.15017 1.38007 
2.11247 3.45702 50.345 
0.502728 4.56568 54.0398 
8.45766 -6.91565 35.5712 
-14.3647 2.80469 5.09271 
2.95635 7.06144 39.1996 
7.1601 5.19478 0 
3.51471 -14.5736 1.8762 
-12.6262 -10.2918 0 
11.9728 6.45185 6.18332 
24.5278 -13.2983 1.79274 
3.16282 -3.89594 48.8579 
-13.7662 1.87193 0 
14.144 -13.8813 0 
-0.850139 6.56198 48.3242 
-2.50818 16.3983 0 
16.8691 -1.24933 0 
-2.7958 18.0511 15.6341 
-15.5868 -6.58943 21.1032 
-5.8681 11.0208 19.3937 
-10.4197 -1.08689 28.6866 
10.5695 -7.92841 31.115 
4.84701 0.209217 47.0702 
-8.47245 14.4083 0 
16.4574 -10.9047 18.0194 
7.9742 2.13837 0 
5.5871 -9.47338 24.3171 
3.09961 -2.64545 0 
7.30473 7.30368 0 
-10.8255 -5.54165 0 
-4.33028 8.67241 30.4201 
0.462433 -9.67815 23.4161 
5.93069 0.364702 42.5987 
14.9986 3.75294 0 
3.52214 17.5971 13.8653 
-5.71815 11.5028 18.9047 
-5.59948 10.2518 0 
-4.78232 9.76444 0 
-2.98016 10.3462 0 
11.4988 1.76342 18.3042 
10.0227 0.411538 26.9028 
4.87874 7.55288 0 
4.37903 -12.8905 9.282 
-12.6732 6.57768 3.23778 
0.890114 -6.27442 0 
-2.31131 18.346 16.8315 
10.1256 11.225 2.72126 
-4.80689 19.8327 0 
-3.78667 10.9122 27.564 
0.270893 -5.38949 42.2863 
-16.8135 -3.82187 0 
-9.28719 -0.67104 0 
3.53313 -9.57223 23.8822 
3.9212 -5.72931 40.791 
-15.4247 -5.67218 19.703 
23.298 -11.1706 1.79793 
-2.94792 21.5641 7.32583 
-15.2676 -9.68716 0 
-2.12399 -7.78598 31.7417 
1.07552 1.49328 58.6165 
-8.5488 -2.40669 38.7194 
-1.62991 2.33091 54.6612 
1.85575 -13.2782 7.57612 
-12.7163 -4.20932 26.8049 
11.6413 -9.17436 0 
4.18668 -11.9562 13.3925 
7.53162 1.16656 34.7343 
3.47208 16.8222 0 
-4.74346 -14.6004 1.75829 
-0.784583 11.0504 0 
1.27908 20.3245 0 
6.89278 -1.90417 0 
3.4225 6.82834 0 
-6.45237 8.24696 0 
-14.9043 -12.1325 12.6169 
-1.9045 3.08712 51.9512 
-12.8582 2.75002 10.9537 
19.7708 -6.90122 0 
-6.03798 -6.26348 38.4407 
-10.7643 1.9417 0 
9.78419 -3.66188 36.7734 
-13.1076 1.58956 12.5562 
-2.31084 -9.45485 24.3986 
-14.5705 -13.6282 6.03601 
9.96933 -7.05834 34.9433 
6.60487 8.89391 0 
-3.663 -10.67 19.052 
-6.87367 14.2052 8.55637 
-9.6025 0.40353 28.5218 
2.18885 -2.36568 0 
2.39535 17.7382 17.8484 
5.43469 19.6437 2.07491 
-0.431961 -10.9446 17.8436 
18.2627 -5.7822 9.13068 
-4.14787 -13.5737 0 
-17.285 -1.77616 4.04276 
-18.8381 -13.2139 7.85902 
-2.10951 -1.66945 58.6544 
16.4711 -2.40343 8.52436 
-0.0433173 10.4082 42.9369 
-10.5899 -0.182465 0 
9.59105 -1.83034 33.4799 
-1.02063 -8.05669 0 
17.31 -0.630541 0 
13.9255 -0.170543 13.3117 
2.97601 19.843 11.0052 
-0.941589 11.7364 36.5919 
10.2105 10.5536 3.87498 
-11.2852 -14.0888 4.00918 
12.0369 -3.24799 27.279 
-24.2311 -13.3014 2.93014 
-14.2057 -7.11396 27.5196 
4.77033 17.5444 9.22498 
-14.1261 -2.61936 0 
18.5305 -13.967 4.54513 
17.1782 -14.6321 1.61865 
-16.0665 -14.1443 0 
5.30133 5.62062 33.4339 
9.34638 2.33638 25.2455 
6.09591 -5.73776 40.7539 
-3.00095 21.9557 6.26239 
-16.3579 -11.4443 15.6449 
-2.94785 6.56272 40.3292 
-3.33082 -12.8762 9.34481 
-19.9888 -14.3824 0 
3.77568 -3.77299 49.3988 
-2.73593 22.6969 5.64155 
-8.97964 8.96837 0 
-3.01944 21.1832 7.89135 
-6.86966 -1.01225 42.05 
12.3101 -5.97529 32.238 
-3.97349 -9.37151 24.7654 
-3.18695 -9.94928 22.2232 
-0.30363 -12.4105 0 
-9.94821 12.3046 1.02214 
-0.522307 27.8283 2.78744 
-15.1247 3.76979 0.073734 
0.480137 6.54237 49.7772 
0.571374 0.69965 0 
0.954901 -11.0416 17.4169 
18.1944 -7.02254 0 
14.144 -1.00334 14.3115 
-19.3577 -9.12592 0 
-9.30228 -4.50546 40.4656 
3.15425 -6.5842 37.0295 
-7.13605 12.3796 11.5729 
-7.05385 3.28066 31.9038 
12.7205 7.54301 0.933778 
-12.0262 -9.99665 22.0147 
-3.85931 2.23929 46.3676 
4.66076 0.674572 0 
-0.944036 7.3725 46.1832 
-3.86313 4.43141 41.5304 
0.479861 18.826 0 
10.4181 7.00466 10.8916 
-1.41883 -5.86077 40.2126 
-12.9171 -2.77028 22.8737 
-5.4015 12.8619 17.1214 
-2.22621 -2.96507 0 
17.5377 -2.71515 5.14563 
2.55147 -11.5169 15.3258 
14.4192 1.29668 8.20282 
11.3887 5.43109 10.655 
-1.51568 3.71179 52.0585 
-6.81389 -14.5435 2.0088 
5.07011 -1.75373 0 
3.88038 -13.8472 5.07241 
-0.0241159 17.5157 27.3735 
-8.36725 -9.9918 22.0361 
10.4563 -4.96977 37.0897 
-4.22252 16.2283 0 
0.468665 16.377 28.1847 
-5.73804 -1.04768 46.44 
6.7869 -0.462414 41.1557 
1.58998 12.2105 33.0782 
-4.14906 11.5716 24.7324 
-13.4993 -0.290099 15.199 
17.9243 -4.81756 0 
14.7499 -11.3209 16.188 
-12.4545 -2.73276 24.5542 
16.539 -1.5182 6.31809 
-1.64179 15.3383 25.9997 
-11.7106 -1.60873 24.9159 
-22.3621 -10.8401 4.63728 
6.63412 17.7142 1.74927 
4.26569 -3.86955 48.974 
16.0701 -11.5517 15.1726 
-0.285702 -8.71982 27.6328 
-4.31862 8.67971 0 
5.40276 4.53494 35.4359 
-12.813 2.54844 11.5692 
-22.6372 -14.7963 0 
-4.31724 -9.58628 23.8204 
-3.5408 -7.07739 34.8595 
4.03539 -10.2096 21.0777 
1.73185 -3.34976 51.2611 
-2.89485 -13.8948 4.86269 
-5.66055 -11.475 15.5098 
2.24058 11.5639 32.0217 
-8.08277 11.734 0 
0.915337 19.2553 20.1503 
-5.32509 18.1596 5.7576 
14.5704 -11.6654 14.6721 
1.52259 21.4927 12.9143 
-16.8262 0.628698 0 
-5.36933 16.7456 0 
-9.18369 1.0532 28.6884 
-11.4016 -3.46548 30.1783 
-20.8545 -13.9353 4.68451 
-21.4375 -12.0314 10.7814 
8.38304 4.23879 24.731 
-16.8722 -6.77626 16.616 
-12.4112 3.67462 10.6228 
-4.16071 -4.16725 47.6641 
9.81228 -7.99097 30.8397 
13.3424 -14.3934 2.66895 
-4.54585 -4.58496 45.8262 
11.522 4.78331 11.5719 
4.55678 9.58904 0 
6.99833 7.81628 22.137 
13.0793 1.04569 13.8606 
-8.28286 13.6466 0 
-7.07207 -2.08402 43.6366 
-14.5461 1.71715 0 
0.910395 -12.8324 9.53763 
-16.0392 -12.6199 10.4723 
-7.80918 -9.17304 25.6386 
8.48538 -9.6478 23.5497 
13.939 1.75631 0 
21.9532 -12.9747 8.91122 
-2.78438 21.8315 0 
20.8884 -10.3606 9.19785 
-12.5477 5.79484 0 
7.80401 -1.65442 0 
-9.9825 -5.46158 0 
-4.34299 21.1152 0 
-6.218 10.4504 19.3154 
-0.263224 -13.3828 7.11554 
-0.400882 9.04552 0 
10.0982 -7.64063 32.3812 
0.698267 9.11118 43.2946 
12.2922 -8.844 27.0864 
17.1704 -0.80244 2.33746 
-15.8933 0.300605 4.77716 
1.89417 11.9153 32.5687 
9.20314 2.8319 24.7012 
2.37017 8.71695 0 
-4.06004 21.7691 0 
0.245952 10.6869 41.5516 
1.45978 1.04847 58.1308 
-1.47606 13.0464 31.6733 
-13.5239 -14.8467 0.674523 
2.07142 6.79868 43.1497 
4.27828 -1.07404 52.0604 
-4.33645 -8.04752 30.5909 
-2.18685 -5.52369 41.6958 
21.4135 -9.12483 4.47809 
-6.61656 13.0589 0 
23.4317 -13.1707 0 
-4.3892 -14.4 0 
-1.75116 16.8773 22.1971 
15.0681 0.117354 0 
6.20293 4.78559 31.8353 
-12.6747 -0.87191 0 
-4.98038 -9.56382 23.9192 
-6.39341 -5.67658 41.0231 
-8.95537 7.21564 16.0011 
19.6191 -10.9434 15.3167 
-21.0315 -7.0339 1.33376 
-6.07224 -9.56693 0 
4.46881 -8.84157 27.0971 
-24.535 -13.5019 2.21326 
8.9347 -4.3331 41.487 
-0.529207 -11.5767 15.0625 
3.28349 -4.44966 46.4215 
0.438426 9.7288 0 
4.48012 19.2623 6.5515 
-0.543306 10.5258 40.7729 
-9.04852 11.1293 7.03596 
-11.1058 7.22687 7.78212 
14.1585 -14.688 1.37265 
1.22621 4.55978 0 
5.33684 -4.67453 45.4321 
13.3726 -4.84425 25.7009 
-0.839056 13.0484 34.0963 
13.7315 -8.95704 26.589 
-8.64634 13.2315 3.94371 
-13.7567 0.653406 0 
-14.9488 -11.4126 15.7846 
-4.69124 14.7736 15.6221 
-1.08529 5.75011 49.2142 
-11.3857 -8.23361 0 
9.79219 8.06001 10.9547 
-18.5679 -6.43101 0 
10.4695 -3.8456 34.5663 
6.60893 -13.464 6.75843 
5.4885 10.5767 21.8172 
-6.78358 0.251928 39.5968 
-18.5682 -6.73227 10.0566 
-12.4713 -11.2943 16.305 
7.26445 -11.32 16.1922 
-7.30982 -9.78812 22.9323 
-4.63141 6.67995 0 
2.54459 9.23446 35.988 
-6.46157 7.12118 0 
2.77761 9.10956 35.3749 
0.892086 -11.3742 15.9533 
4.50478 -9.83651 0 
10.0954 12.0334 1.05791 
-5.34884 0.218024 0 
-5.32461 12.0002 19.3101 
3.41898 8.02078 35.3262 
5.45227 16.1825 0 
3.99196 -0.0454533 0 
-6.18041 12.6811 14.551 
-2.37812 10.0711 0 
7.22084 9.38928 0 
-11.7254 -1.27583 24.127 
10.9502 8.58276 0 
-4.56059 -4.33213 46.9386 
1.94082 -9.06855 26.0984 
10.4014 -13.5803 6.24683 
11.2674 4.96329 12.1464 
-5.49351 -2.72279 0 
-22.1507 -13.7844 5.34848 
-9.70418 -4.41243 38.7294 
12.6501 -9.69133 23.3581 
0.246173 -8.62452 28.0521 
2.44294 20.1151 12.4379 
-4.58372 4.23944 39.2069 
-0.648273 -10.1942 0 
-13.9353 -11.9092 13.5996 
-6.38438 -4.26674 47.2263 
1.90333 0.38308 0 
15.4317 -13.7692 0 
-2.27851 0.35976 56.5263 
22.8442 -13.9533 0 
2.3205 19.7528 13.7015 
3.91562 -10.0441 21.8059 
3.966 12.1235 0 
-3.24334 -4.382 46.7192 
-1.76893 5.39921 0 
-10.0212 11.3194 2.91145 
15.9659 -5.0107 16.1851 
4.80278 -12.5548 10.759 
-2.2939 14.8637 24.559 
1.68597 -12.6248 10.4509 
-9.46352 -8.45559 28.7954 
7.69343 -7.95688 30.9897 
-21.6121 -7.67644 0.534895 
-9.12003 6.56241 16.8107 
-3.3403 3.20411 0 
16.4187 -14.7117 1.26864 
10.4077 7.99252 0 
-8.54784 9.85232 0 
-1.04758 15.2735 28.4064 
-5.05292 13.615 16.7928 
-5.69718 -3.72335 49.6173 
-3.01651 14.8428 21.8513 
-1.59549 16.0693 24.568 
-1.13567 -11.4882 15.4517 
-12.6628 5.04599 0 
21.7083 -9.3615 3.87553 
0.296042 13.9144 34.2602 
10.2467 2.71549 20.9806 
-24.2992 -14.3552 0 
-3.41339 13.6924 0 
5.81816 -5.58689 41.4177 
13.7086 -1.77839 17.6757 
-17.7429 -3.95 7.0804 
-5.28204 -13.6239 6.055 
-2.18155 -4.17698 47.6213 
-14.5584 -9.62682 23.642 
-10.834 -9.42966 24.5095 
6.93569 7.63604 22.7722 
-1.08411 17.124 24.1962 
13.721 -5.30533 25.3878 
-14.6367 0.115617 9.97227 
6.87509 -6.54301 37.2107 
-13.0763 -11.3369 0 
17.9832 -10.368 0 
2.65362 18.1205 16.0233 
3.73267 1.72159 47.9891 
1.05588 -13.1516 8.13317 
9.84384 -10.6509 19.136 
3.39206 9.07362 33.1126 
-11.1141 4.67753 0 
3.51151 -7.53013 32.8674 
3.58152 13.7122 0 
4.35937 11.5313 0 
5.58672 -11.803 14.067 
5.64021 -8.19567 29.9391 
-22.2928 -8.99311 0.837788 
1.42565 6.86523 45.464 
0.753399 22.9884 12.5547 
-17.1125 -11.5853 15.0249 
17.4262 -2.80993 5.77907 
-9.62456 -2.10484 33.9562 
-9.50363 7.31128 0 
-18.8578 -7.69922 11.0803 
12.8878 5.03475 5.81457 
17.709 -13.3387 7.30958 
-6.94489 -12.4647 0 
16.6306 -7.77611 19.7364 
-20.3775 -14.7733 0.997308 
0.384067 18.6195 23.5735 
9.0533 7.18394 15.6976 
-0.72835 12.615 0 
7.60824 10.549 13.8009 
-8.31494 -10.7497 0 
1.51947 3.26094 53.036 
20.978 -12.5487 0 
2.90829 9.23737 34.5957 
-11.478 -13.1249 8.25029 
11.8706 -1.58491 24.2539 
-4.12079 -11.2343 16.5692 
5.78454 -2.15313 0 
8.60798 2.29765 0 
16.4351 -12.7817 9.76039 
0.668807 2.68142 57.5524 
-1.96164 3.59753 50.6106 
-16.6504 -5.24949 14.1025 
-18.5533 -10.0591 17.4324 
12.0792 5.94886 6.88441 
6.95554 16.1372 3.99389 
11.9284 -10.8432 0 
4.54589 9.23871 28.3527 
-5.54206 -4.34825 46.8677 
-21.8903 -10.0205 4.63182 
-4.45216 -0.853413 50.9125 
2.56672 3.65542 48.1776 
2.70403 -9.27236 25.2016 
15.5636 -12.7658 9.83062 
-0.878072 13.3273 0 
-0.818623 12.4737 35.4385 
9.18296 -8.64635 27.9561 
-2.96884 17.0479 17.1819 
-2.99809 15.5447 20.3774 
-1.67388 -9.89679 22.4541 
23.3456 -14.0303 4.26648 
-8.39482 3.15637 27.0674 
3.28257 -7.76136 0 
15.0053 -5.96149 21.9375 
-5.80217 -13.0446 8.60371 
4.09947 5.79195 37.6366 
-15.3111 0.524573 6.50278 
-23.5727 -13.7125 5.66497 
10.0868 -13.4611 0 
1.68515 -4.16104 47.6914 
1.42465 -10.1475 21.3509 
-14.2007 -12.2044 12.3005 
-5.19052 -6.65604 0 
-20.0927 -11.5704 14.8914 
8.3359 -0.958154 36.3439 
-8.02115 -7.14314 34.5702 
14.0213 -11.2645 16.436 
-23.3709 -12.9416 5.41632 
-7.967 -13.4766 6.70287 
15.1213 -5.26107 19.9545 
17.8873 -14.4132 0 
3.00918 14.0771 23.5639 
-11.1835 -11.2319 0 
-5.225 2.595 40.3811 
8.51481 13.9286 2.91135 
2.69089 -14.8391 0.707822 
-1.03331 25.7484 0 
-3.69134 9.52242 30.9848 
2.63276 -10.6488 19.1454 
-4.86516 3.03563 40.7829 
-3.61015 17.6806 13.3463 
-4.05399 8.69415 31.4251 
7.7868 -12.2126 12.2644 
21.2618 -12.267 11.9691 
4.53591 21.1148 2.26328 
-9.41651 -10.0431 21.8104 
17.7502 -10.2523 20.8898 
-20.9857 -13.2109 7.87206 
-12.0653 3.39273 12.5612 
-1.30912 21.1956 14.3812 
-1.9707 19.414 15.7799 
-2.00346 -7.96213 30.9666 
3.35987 -8.45703 28.7891 
-10.7173 4.05884 0 
-4.75439 19.108 0 
-8.56728 -6.43177 37.7002 
12.5294 -7.30592 33.854 
-7.25244 4.47486 28.5198 
0.987666 17.7586 23.1676 
6.13656 19.0152 0.783129 
-10.6463 3.16299 0 
20.2929 -13.7161 5.64895 
6.04054 14.2256 11.6862 
11.204 -12.7123 10.066 
-4.11213 15.0874 17.1383 
-8.26865 10.8878 0 
-0.942409 16.1502 26.8784 
19.443 -9.32009 12.4166 
18.0475 -3.25258 4.38558 
2.93383 3.344 0 
-8.54853 11.8018 7.46168 
24.1201 -13.8562 4.57379 
-3.77839 12.3605 24.4092 
-8.45041 11.1877 9.18663 
4.94991 14.2176 15.8595 
-0.118299 0.318395 0 
3.06085 17.6181 15.5767 
11.1806 -5.56994 35.6502 
11.1996 -13.7889 5.329 
5.46854 -8.33812 29.3123 
3.65462 -4.99427 44.0252 
8.49572 -13.1425 8.17315 
-20.3856 -8.05862 6.04932 
-1.52346 -0.386035 61.0441 
2.29716 15.5497 23.0373 
-11.5282 -9.90311 22.4263 
-0.950524 -2.54563 54.7992 
10.7611 -9.91338 22.3811 
0.742652 -1.87775 57.7379 
-3.64599 7.36182 35.9109 
-12.4408 -14.9479 0.229286 
-12.9837 6.70015 1.7853 
12.1874 0.245723 19.0193 
-4.21164 22.3723 0.73245 
-6.72464 -12.249 12.1046 
-9.89254 -12.1969 12.3335 
-11.7858 -10.6598 0 
13.6617 -11.4966 15.4147 
0.917728 11.3292 37.5788 
17.4237 -7.88857 16.9616 
20.4064 -6.71657 3.01769 
10.2855 -12.1665 12.4674 
-11.9196 -7.93637 31.08 
5.48006 -4.49975 0 
-13.241 -13.3124 7.42565 
-20.6695 -14.609 1.72039 
-9.8901 -11.4986 15.4062 
-8.62776 -11.5392 15.2274 
-17.4487 -11.9763 0 
10.4674 -4.34671 0 
22.5047 -10.9588 4.35497 
2.32246 -3.55635 0 
-13.4725 -0.977226 16.8126 
13.5375 -3.30513 21.6864 
-3.0198 2.55069 0 
13.9762 2.93228 6.29241 
13.61 -5.43495 26.0957 
-4.446 0.766493 47.3722 
5.99291 17.7725 4.06434 
9.44003 -13.0544 8.56069 
2.06334 4.43478 0 
-1.1839 -7.31685 33.8059 
-1.62994 7.76758 0 
-18.8904 -3.46545 0 
3.25769 -8.91107 0 
-0.143525 21.2635 18.6734 
10.4814 -14.6589 1.50093 
-10.3153 2.59825 0 
12.9191 -9.00076 26.3967 
-1.80284 19.4051 0 
-9.80569 9.50863 7.71632 
-10.9186 2.38625 19.1447 
18.2658 -13.2229 7.81905 
-2.54713 2.84688 50.031 
14.2879 -11.4263 15.7245 
-13.7687 -14.4917 2.23638 
-13.0804 1.92421 11.9237 
2.34739 18.7195 15.8722 
-10.8285 -6.83237 0 
-4.78002 -11.1668 0 
-8.52735 -10.6112 19.3108 
-1.48561 25.7019 3.79486 
-10.4141 -13.6227 0 
-1.32579 7.19525 0 
15.9001 0.234434 4.89674 
-15.074 -5.37818 20.3924 
-0.682469 18.2015 23.3563 
9.11793 3.49677 23.5631 
-17.246 -4.2548 9.64464 
13.7657 -7.4615 29.961 
10.0867 0.0279924 27.5031 
-1.66005 17.085 0 
-3.51511 6.6815 37.9063 
-3.62858 -9.24621 25.3167 
-7.95091 2.44478 0 
-7.3246 8.09861 20.2726 
2.68073 0.0211444 0 
-9.68587 2.09279 24.4877 
8.85849 11.9219 6.01639 
-9.83601 12.1716 1.74233 
-22.7447 -14.7921 0.914936 
4.48383 4.54078 0 
-16.3148 -10.4758 0 
10.935 -6.61425 36.8973 
-8.14995 -6.27992 38.3684 
-3.89484 15.6519 16.7245 
3.42919 -14.9464 0.236016 
-8.03064 -11.4588 15.5812 
-3.4182 -4.89952 44.4421 
12.4005 -7.14762 34.4727 
12.363 -6.69666 33.6234 
4.89508 13.3667 0 
10.7847 -6.76435 0 
22.6592 -10.4919 2.73916 
6.12526 17.9437 3.18351 
4.61685 -8.68231 27.7978 
1.23385 -13.3943 7.06515 
-11.4653 -11.904 13.6223 
4.31437 -9.52641 24.0838 
-2.67539 -12.9629 8.96323 
4.67966 -2.23712 53.0898 
0.426701 -7.84154 0 
8.59878 12.0751 6.66905 
16.8434 -8.28079 0 
-8.05239 3.78042 26.9993 
0.385595 -14.1236 0 
3.98482 7.33399 0 
-7.27161 8.92455 18.6574 
12.8412 -1.4038 20.1567 
-2.84811 8.42382 36.6148 
-20.7255 -8.61275 5.97315 
0.398525 8.92045 0 
1.68616 5.09518 0 
-21.3462 -13.8312 5.14266 
-15.0447 -0.464368 9.69376 
-4.81363 -13.4122 0 
-8.78778 4.35226 22.9391 
10.5391 -4.28643 35.2709 
-2.24486 -10.7214 18.8259 
0.970335 -0.858355 62.2232 
-15.7339 -4.69714 16.3793 
-19.5782 -12.111 12.7117 
1.41141 21.742 0 
4.1057 16.4755 0 
-10.2324 -13.8135 5.22079 
-5.73652 -4.2031 47.5063 
-0.0958714 8.37713 47.205 
22.1571 -14.2143 0 
6.34187 -14.7871 0.936648 
14.0559 -3.06143 0 
-1.41235 0.582867 59.3359 
7.80094 -5.10497 43.5381 
-9.86404 -9.03926 0 
3.3688 18.0699 13.4095 
12.4878 -10.332 20.5391 
-0.510396 28.1866 2.0445 
-10.3945 -9.55322 23.9659 
14.6731 -2.82524 0 
-1.39069 -10.7358 18.7627 
5.57089 17.2482 6.82601 
-21.4427 -9.61734 5.45035 
-15.8 -13.4784 0 
-0.526948 -4.25182 47.292 
-19.8736 -11.7999 14.0804 
2.35196 21.7622 9.16099 
-18.3936 -14.0284 4.27484 
19.6774 -8.04663 8.72145 
-3.48356 22.5817 0 
5.31885 -9.81178 0 
4.34635 -7.33631 33.7203 
15.5535 0.633644 0 
-15.3942 -4.4717 17.1779 
-0.759339 9.12167 43.0389 
-11.5198 6.15372 8.56558 
8.07849 -10.8977 18.0503 
9.34328 -13.2003 7.91866 
-0.561646 -2.80501 0 
12.8261 -14.6794 1.41049 
4.3681 -3.00921 0 
0.418947 -6.30867 38.2419 
4.97853 -11.5925 14.9929 
-10.9528 -3.80853 0 
10.9372 -9.5129 24.1433 
-4.88596 -12.3256 11.7674 
-3.53485 3.67949 44.4355 
13.9917 -14.4862 2.2606 
20.367 -12.2539 12.0828 
6.77289 7.62547 23.4158 
-8.65807 -0.946467 0 
-8.18617 -1.92686 39.0456 
5.06805 -6.31473 38.2152 
-0.162884 22.3186 16.2785 
-2.6118 -3.39837 51.0472 
10.3613 -14.8241 0.773827 
6.72298 -13.2824 7.55755 
15.9217 -7.13813 21.034 
-15.5163 -3.64228 0 
-6.01444 6.67835 28.3895 
-11.4496 6.79027 0 
-17.9235 -9.8407 0 
6.62611 -9.69093 0 
-7.01803 -9.30837 25.0432 
-1.5463 2.75498 54.0468 
-11.49 -2.20842 27.0758 
-9.02491 -7.52551 32.8878 
16.4565 -10.7323 18.7778 
11.716 -3.93667 30.0169 
-0.193774 -2.20432 0 
13.9214 -9.57242 23.8813 
-18.9382 -9.68276 15.1377 
-3.52694 -13.9482 4.62804 
-2.72032 -4.37969 0 
-2.4371 13.5906 26.8141 
-10.8687 -3.61577 32.5395 
-7.18505 -8.00208 30.7909 
19.5206 -12.2819 11.9596 
2.88192 20.9702 0 
-5.9987 -3.2449 50.2807 
11.6896 -8.7779 27.3772 
-7.94256 4.9717 0 
0.387273 11.964 38.2034 
-10.488 0.68046 24.5384 
-12.8013 -11.1029 17.1474 
13.2953 -13.1337 8.21183 
8.72877 -10.9369 17.8778 
15.5253 -9.76551 0 
5.35267 4.00774 36.7866 
-0.291507 4.35453 55.3093 
11.3536 -2.22962 27.6421 
8.50426 12.5556 0 
11.2539 -14.9971 0.0126385 
1.99521 1.35249 55.4218 
1.13793 18.4686 0 
-3.37115 5.35202 41.3797 
11.5203 4.98793 0 
-4.87931 4.11943 0 
0.996085 27.0013 2.80144 
-3.77276 2.22894 0 
12.5118 -13.4216 6.94488 
13.5842 3.80947 5.85645 
-2.61435 -1.18838 0 
-19.3765 -14.9943 0.0250373 
-7.47258 16.4169 1.4085 
-13.8998 -13.2176 7.8424 
-3.6101 13.5687 22.3926 
14.6403 -8.47669 28.7026 
16.6476 0.943713 0.488096 
13.2912 -13.4677 0 
0.310687 15.0158 0 
-14.6012 2.25688 5.39694 
13.5866 5.47336 2.18674 
3.35581 -9.96106 22.1713 
-2.16565 6.23343 44.0342 
1.19252 9.645 0 
-7.79306 -12.2449 12.1224 
16.9572 -10.2617 20.8484 
-1.11542 -7.29773 0 
-1.76887 0.314532 58.5677 
-12.3848 6.78742 3.87537 
17.8772 -2.3917 3.14049 
-3.16551 -7.87311 31.3583 
-4.15141 -10.7249 0 
-4.17603 -7.83971 0 
-3.45562 -10.1718 0 
15.4121 -8.96659 0 
22.2645 -14.8054 0.856094 
-18.3951 -5.62303 0 
9.33255 12.8513 2.16529 
-3.92938 17.3769 12.7978 
-3.35015 -6.7605 0 
-2.86532 2.19405 50.2547 
-0.166946 -11.3924 15.8733 
4.02896 -5.11262 43.5045 
6.10222 -0.732389 44.3587 
0.873073 -0.0710192 0 
-12.4363 -3.67913 0 
-12.0551 0.31267 19.3761 
-13.8604 -11.7575 14.2672 
4.75387 -5.09647 43.5755 
12.3787 -2.22912 23.735 
0.4558 -13.3234 7.37702 
-0.420676 -8.00294 30.787 
3.7077 -1.27956 54.6868 
-0.433389 10.4946 0 
3.73507 5.76723 39.0796 
-19.6856 -5.93488 0 
-9.08134 7.72605 14.3982 
4.21439 8.00833 0 
-0.884576 -12.913 9.18266 
2.43363 -8.24785 0 
-21.4106 -10.2852 0 
-10.7593 6.20677 11.3465 
10.7274 3.49561 17.4329 
-14.3276 -4.62587 0 
1.5946 5.26825 48.3336 
-4.93068 1.01891 44.97 
3.40561 -7.69495 32.1422 
-10.1735 6.94921 0 
-20.0316 -12.5322 0 
-21.3416 -12.4196 11.3538 
-17.7725 -12.4243 11.3332 
19.1595 -13.1239 8.25505 
6.55661 -4.92125 44.3465 
-0.896825 -13.9741 4.51418 
19.9777 -12.6603 0 
1.13731 -7.69584 32.1383 
5.54238 15.3076 0 
5.80338 1.4426 0 
7.86025 -0.0645871 0 
1.90805 -5.74706 40.7129 
-0.826258 -5.803 40.4668 
11.8704 -6.66505 0 
3.38477 -8.6246 28.0517 
-3.86117 -1.36604 54.2923 
6.44521 -9.19427 25.5452 
11.2203 -10.0253 21.8889 
8.70865 -10.2637 20.8398 
-11.3427 9.84413 1.12151 
-4.17426 10.5667 0 
-13.0926 -2.37749 0 
-2.687 6.0058 0 
9.98071 -0.70406 0 
-7.38179 2.60555 32.1394 
1.84324 -10.0075 21.9669 
-4.93162 12.75 0 
-14.5972 -5.35685 0 
2.67763 -14.9818 0 
-11.778 -12.891 9.27971 
-4.04036 -6.05315 39.3662 
-10.8474 -13.7345 5.56818 
2.61769 12.8914 27.6641 
0.752657 -0.029095 63.196 
21.0462 -8.4719 4.44134 
-1.09852 5.25974 0 
12.1137 0.0849597 19.6536 
-10.0906 -7.93497 0 
-4.30191 5.8926 36.6438 
-10.2064 -7.18796 0 
9.40711 -7.68031 32.2066 
-10.9066 -9.15294 25.7271 
3.91232 5.8312 38.2634 
9.34568 -2.44491 0 
17.2734 -0.0472775 0.283635 
-15.3874 -10.5308 0 
4.23105 -14.5132 2.14202 
15.2939 -9.30922 25.0394 
11.6168 -11.5603 15.1347 
7.24893 -3.29438 45.6255 
4.49454 17.7716 9.77604 
9.73718 6.80952 13.9154 
1.9275 -3.19507 51.9417 
4.99872 -10.7521 18.6906 
7.99131 4.95306 0 
-15.3021 -13.1776 8.01857 
2.06797 14.2434 0 
-12.3943 -7.17242 34.4414 
4.46047 7.5786 32.3304 
16.2115 -13.6275 6.03898 
0.983495 -3.00321 0 
4.2281 -6.34561 38.0793 
3.6262 12.499 24.6846 
1.39851 10.653 37.2343 
-11.1508 -7.56018 0 
12.4529 -12.9528 9.00777 
-4.18489 -5.85748 40.2271 
7.236 1.13577 35.9284 
1.45251 12.1107 33.8216 
-1.75305 8.57501 40.455 
-3.26149 16.8297 16.5468 
8.97472 7.56185 15.1656 
-9.46806 5.74495 17.2829 
6.81086 5.58543 27.7592 
-7.41475 -8.16079 0 
9.13073 -0.487631 32.28 
-16.8762 -4.55604 0 
-11.3399 0.874533 20.865 
-10.1812 -8.43275 28.8959 
-2.85661 -12.1371 0 
-7.45912 -6.19439 0 
-11.7234 1.55092 17.9159 
-12.4328 -12.3841 11.5101 
-0.984607 26.9118 0 
-11.9155 2.21976 15.7123 
9.58139 -12.9408 0 
-0.835629 15.7991 28.0578 
6.72572 7.38117 24.133 
3.27639 -10.115 21.494 
0.798927 16.0082 27.7377 
12.4398 -9.10422 25.9414 
-10.1956 -10.0948 21.5827 
2.64671 2.54068 0 
12.5874 -10.3293 0 
-9.04599 -1.00709 33.7457 
7.61453 -8.8391 27.108 
4.38875 3.36767 41.8677 
-3.86386 6.7903 0 
4.4717 -11.3831 15.9145 
-21.7188 -12.1107 0 
-12.7505 2.22387 12.5215 
1.98724 -8.44091 28.86 
-17.3981 -8.69543 18.8341 
1.46031 3.92014 51.8112 
2.12213 21.0217 0 
6.42826 -7.79603 0 
12.6174 -1.51619 0 
11.5914 8.49617 0 
-15.8239 -1.38334 8.74605 
1.82404 -1.78419 58.1496 
-4.76089 9.1139 27.808 
-11.9245 -8.38173 29.1204 
0.668595 -6.84991 35.8604 
