ply
format ascii 1.0
comment VCGLIB generated
element vertex 2304
property float x
property float y
property float z
element face 0
property list uchar int vertex_indices
end_header
20 -6.87533 28.2752 
-16.2952 9.14753 0 
1.6689 -20 36.4741 
20 -13.9307 31.9775 
-0.421707 20 4.58279 
-20 5.55184 10.8261 
7.10205 -0.819351 0 
3.88331 -7.33453 80 
18.1641 -20 12.9223 
0.873542 -20 54.3939 
-20 -2.63239 26.7596 
20 18.6589 72.3062 
-15.3918 -8.70308 0 
-15.2254 -20 61.5276 
20 -10.9242 77.7654 
-19.5896 20 9.87043 
-16.2925 -20 61.1194 
20 -11.1789 72.739 
-20 7.29697 61.1339 
20 -18.856 73.7713 
8.7064 -9.45241 80 
14.009 20 33.1313 
20 -6.81958 39.4865 
20 -5.32181 73.8091 
5.14068 -20 39.1836 
-20 5.64651 69.0609 
-1.81623 9.99887 0 
-18.0152 20 54.4083 
-20 16.6387 45.3724 
-4.55758 -19.5137 80 
-20 12.7052 0.18737 
20 1.21832 36.8381 
20 -6.57355 76.9265 
20 -13.8449 50.1288 
-6.36236 -20 7.85413 
-1.46321 -10.0499 80 
20 2.48574 38.7745 
-20 11.0198 20.2382 
-18.3589 -20 23.5584 
-0.887917 20 63.0356 
-20 8.98199 62.3387 
9.94507 20 74.3481 
4.82669 -20 8.00699 
4.50995 20 33.3897 
19.2298 20 49.7098 
-13.1156 20 22.136 
-11.0662 10.0059 80 
-14.4171 20 21.6361 
11.9728 20 6.41902 
-11.6821 -20 47.1712 
-20 -6.7494 68.0035 
20 -14.2034 16.5036 
20 -3.03471 64.1848 
-12.3403 -20 44.9313 
-15.3787 6.77479 0 
20 -1.28562 75.2321 
-6.08406 -20 42.8932 
11.6901 15.5336 0 
0.8162 20 30.0565 
10.0177 20 37.2816 
20 19.02 69.0919 
-12.9338 20 12.2904 
-15.9547 -10.4988 80 
-8.65792 20 53.616 
10.4689 -20 59.5921 
-19.7134 -20 19.3313 
-1.0439 -17.8962 0 
-10.1572 -20 37.8395 
-20 16.3876 35.3278 
-20 15.8162 49.1922 
20 0.547397 68.3123 
0.651104 -1.23281 80 
20 -5.5439 75.7349 
2.38375 20 51.7296 
11.3592 20 25.7104 
-20 7.80235 13.0118 
-16.6926 20 54.9825 
-6.88524 20 45.2879 
-20 -18.8651 22.5863 
-20 -10.4322 60.3608 
-14.9039 20 23.5196 
-20 -10.8281 58.8526 
-20 1.96911 6.88587 
-20 1.45178 5.30708 
-5.14003 20 78.0317 
13.287 15.426 80 
-6.30961 20 12.7071 
18.0678 20 35.1694 
20 -6.75406 37.4044 
-20 -12.4212 74.1012 
20 15.718 58.8945 
12.7465 20 43.9207 
-1.16995 -20 47.3622 
-20 -2.71465 37.3571 
-3.17184 -20 12.7086 
20 1.88378 4.79905 
12.6904 18.4276 0 
-20 17.7123 71.5312 
-1.38676 20 64.0062 
-20 -11.9369 9.77992 
14.3713 20 3.39004 
-8.77105 20 57.9121 
18.7318 20 21.7909 
20 2.74684 14.8976 
18.6229 20 17.7862 
-8.51717 -20 14.6292 
-1.20783 -20 28.2881 
-3.27679 -13.7391 80 
19.7346 18.8908 80 
-20 -5.81307 20.0461 
-8.62343 16.6448 80 
-13.2928 16.758 0 
-14.2538 -11.1264 0 
2.07657 5.23291 0 
-20 16.2773 53.6526 
20 -1.82558 40.4893 
-6.21945 20 53.8994 
-8.30087 20 71.2584 
18.1864 -18.613 80 
8.2256 -20 5.30985 
11.1105 -11.9276 0 
4.89504 14.5532 0 
-17.3221 -20 34.4871 
19.0228 -20 67.9413 
11.627 20 4.03578 
20 4.86303 76.4676 
-11.9747 4.96854 0 
-11.5297 20 72.4008 
16.6352 -20 59.0528 
0.381828 20 19.2724 
-10.0181 -20 27.8432 
-19.9309 -20 51.2146 
2.15139 -2.08695 0 
17.2591 20 72.6016 
-4.5107 1.22617 80 
-0.921667 11.7273 0 
-20 14.2289 34.5968 
20 4.96314 70.2436 
-20 -12.6044 24.8227 
9.16622 -20 4.12897 
18.3876 -9.13776 0 
10.0299 -3.52276 0 
-11 4.57754 0 
-20 -7.28716 76.1195 
-20 -9.72344 75.7166 
-20 6.96095 17.9176 
-3.22559 -10.7166 0 
4.58688 20 55.3493 
1.69773 -0.43308 80 
-20 -17.474 45.5138 
20 13.3111 20.0422 
-18.1177 4.69364 80 
-5.34358 -20 29.2297 
-20 -13.299 77.5209 
-20 16.5821 62.9438 
-20 10.4802 54.9433 
-20 -7.4135 75.167 
11.7514 9.26164 0 
-20 18.7399 14.3273 
14.8296 -14.4173 80 
-11.8445 -20 76.2273 
-20 0.970901 62.4491 
13.4173 -20 53.4515 
8.62712 -20 69.1876 
-3.63363 6.61257 0 
20 14.2411 75.6075 
11.8201 20 60.8037 
-20 5.72479 52.6048 
20 -3.0272 57.8181 
-9.49244 -20 14.5528 
-19.4523 -20 72.4889 
20 16.8575 71.1312 
-17.1272 -20 18.9733 
-13.3681 20 76.6347 
2.66897 20 23.9798 
-20 -15.698 78.6911 
20 -8.45259 67.5478 
20 1.59473 54.7468 
-6.60437 9.28 80 
20 -17.5836 49.8437 
6.54837 -19.7401 0 
-20 -14.4229 27.9545 
14.9904 -20 56.9411 
-20 -4.26929 67.9627 
-5.82656 20 56.8477 
-7.74318 19.3293 0 
-2.98427 16.5112 80 
-20 6.68341 68.364 
10.3328 20 76.6763 
-8.19123 20 63.5182 
20 17.1357 62.4247 
20 3.62566 50.1368 
-20 10.5298 28.8713 
-16.5217 -20 36.2676 
-10.593 20 31.2957 
5.92917 -20 17.3112 
-20 -14.1734 15.855 
20 -10.8089 10.8158 
3.71331 -20 30.8541 
20 -4.80053 41.2124 
20 -9.11731 9.61639 
-20 13.2553 14.5167 
20 13.6647 24.3146 
-20 -4.78868 34.2958 
20 16.5194 55.2341 
2.21859 -20 70.6964 
13.3013 20 7.85061 
-9.19363 20 16.7064 
5.11883 20 52.916 
-0.767849 20 31.4252 
-2.43652 -20 25.5936 
14.5575 6.28518 80 
11.8057 -3.01594 80 
-20 -2.97365 61.0182 
-20 4.8628 29.6247 
-20 -17.773 49.2167 
17.9659 -20 56.5424 
-20 8.95048 33.6235 
-17.804 -20 20.6992 
-20 3.49784 22.4156 
-20 -10.4744 32.0433 
20 6.28544 56.0187 
-20 15.5677 46.1714 
-20 -4.19369 32.7836 
20 13.0721 68.4256 
-7.52625 -0.976928 80 
-20 19.3758 44.6049 
-20 5.43054 24.3433 
4.78126 -20 67.5443 
-19.8006 11.2843 80 
20 -12.5455 71.0233 
-9.80115 20 50.7475 
20 9.17806 24.1735 
10.1955 -20 51.8872 
20 -14.1142 57.5375 
20 13.2892 28.8307 
20 -7.10005 30.1628 
-0.620785 20 53.7314 
-20 17.2403 19.7424 
-9.72962 -14.5797 0 
-20 -18.4218 78.8139 
4.37018 20 12.5431 
15.6852 20 30.6146 
-11.7226 20 50.7733 
6.07442 20 58.7026 
-20 5.77226 31.5662 
17.3644 -12.4449 80 
-20 1.51448 58.1032 
20 -8.39449 10.6306 
20 -6.3335 54.0495 
-13.9955 -11.4869 80 
-0.561476 6.574 0 
-20 -2.20007 28.0379 
0.523651 18.6944 0 
-20 -13.2512 69.8059 
-20 0.0752487 44.7272 
20 11.4134 51.8533 
-7.33152 -20 34.9028 
6.20199 17.0383 80 
7.49742 20 49.896 
-5.39686 1.94899 0 
5.59467 -20 36.7582 
20 0.571775 28.8545 
10.7824 -17.6061 80 
2.36559 -2.50588 80 
2.24 -20 60.8791 
-5.98572 -20 37.7369 
11.1852 20 10.2768 
9.89993 -20 42.5233 
5.99676 20 30.8351 
-20 -4.54513 58.9668 
-10.7524 20 47.8623 
20 -14.4284 72.2726 
20 17.5531 44.068 
-1.08118 20 79.4321 
0.701928 -20 71.5183 
7.78676 -20 75.7148 
20 7.03743 50.118 
11.5957 -16.4565 0 
20 1.32728 42.472 
20 -15.6339 78.1306 
3.19458 -20 47.9356 
-20 1.58419 30.248 
14.8583 20 22.7149 
9.60722 -20 46.5745 
-5.63311 -13.9316 80 
9.51018 11.6034 0 
0.869026 -6.47604 80 
-7.76917 -3.3994 0 
-10.7489 20 37.1244 
-20 -17.137 69.3389 
-12.4249 -20 28.8195 
3.23202 -20 8.93535 
20 -16.6373 4.92189 
4.56096 -5.13912 80 
20 -19.4275 15.0389 
20 -15.6745 6.69325 
-0.346649 20 46.3864 
9.78583 -17.533 0 
19.9806 20 46.7006 
20 6.00973 35.916 
20 14.2557 7.0101 
-20 17.123 2.98668 
13.3591 -20 12.9868 
-8.82451 20 1.13637 
20 6.2493 59.0024 
-9.10519 20 59.0587 
20 15.5663 1.60043 
20 -17.8559 6.62331 
20 -15.0653 31.8301 
20 -19.3836 45.4244 
9.42657 20 65.4036 
7.62998 -20 36.6164 
9.36459 20 55.7938 
-4.87625 20 37.532 
13.0044 -9.77688 80 
-13.3245 -20 74.4448 
5.58382 -20 34.0244 
-12.6801 8.0598 80 
-2.15509 -20 29.1386 
3.98695 -20 15.5335 
7.80136 -20 4.27045 
-20 4.938 61.0766 
19.7043 -9.98866 0 
-7.05185 20 54.3822 
17.2231 20 52.305 
1.05155 -5.00119 0 
-9.2191 -20 5.76297 
-6.33654 -20 52.211 
-20 -5.35658 15.2959 
20 12.8892 32.7829 
-19.2559 14.5147 0 
-20 5.80691 70.8036 
0.535495 -14.3729 0 
11.6037 -20 68.7906 
3.93492 -20 11.425 
1.3599 -14.0498 80 
-9.46527 20 77.9656 
-10.5307 -20 76.9004 
-2.58871 8.30734 0 
1.99158 -20 55.2245 
2.49551 -1.3192 80 
-17.321 5.31642 80 
8.57588 20 11.831 
11.593 20 79.091 
-20 8.60134 5.61293 
-18.9764 20 37.013 
13.9586 11.2511 0 
20 15.2288 74.9351 
-5.63626 18.0561 0 
6.95511 -20 68.1473 
20 -12.9128 8.09983 
-20 -10.7791 72.0089 
20 -10.3911 37.2623 
-20 -15.5812 67.3865 
-20 -0.556813 32.8071 
18.1826 20 44.0021 
-20 -11.2675 26.405 
11.0915 -20 7.06007 
-20 -14.841 73.1875 
20 14.0804 50.2136 
-20 -3.16896 51.7309 
4.14696 -20 62.1412 
19.5837 4.92721 80 
-20 -6.53076 74.4639 
8.03767 -20 58.0338 
20 2.42654 28.8191 
-20 7.15816 7.47106 
-20 10.0901 13.4801 
13.6086 -5.96951 0 
3.4578 -17.7798 0 
4.44095 20 7.76784 
-5.53728 20 69.1298 
20 16.7044 14.8067 
11.4708 20 28.3221 
-11.7242 -20 4.08681 
15.7906 13.2164 80 
-15.5788 4.94671 80 
1.83446 -7.77233 0 
-8.77447 20 74.3111 
-10.7355 20 16.3251 
3.17525 -20 17.8328 
-7.52933 20 59.1441 
6.50754 20 17.3416 
-20 -11.5157 5.95055 
20 -5.9858 48.7797 
-20 -17.7826 65.4359 
20 -2.11485 37.4525 
-9.663 -4.74956 80 
12.289 20 27.7054 
-7.95941 -20 27.8668 
20 11.796 18.8844 
20 -3.40657 18.1572 
2.82458 20 21.2442 
-13.8253 -20 47.5666 
20 -18.5748 0.299769 
20 0.641508 62.1671 
-20 17.2198 6.02838 
-20 4.99919 50.1508 
20 -18.4177 34.8767 
20 -3.80472 36.3632 
-17.8045 -20 21.7972 
-20 12.8386 75.9917 
-20 3.13028 39.7717 
-4.5955 20 43.4223 
-20 -2.4398 68.4849 
-14.9779 20 61.1047 
20 -14.5003 2.29113 
-20 -15.3598 16.9714 
1.43918 -1.08934 0 
20 1.50578 68.6629 
-10.4775 -17.7668 80 
-20 -6.85353 39.3682 
20 -9.37984 5.71922 
13.646 20 44.3591 
9.55185 16.0314 80 
-11.2125 17.5637 0 
-20 19.8451 8.64646 
20 15.7735 17.2465 
15.4486 20 24.2531 
9.12817 20 63.6807 
-20 -15.4106 62.8987 
20 10.6089 35.2357 
15.3768 -19.0696 80 
6.03549 20 45.3411 
20 13.5595 13.876 
-20 13.0217 24.3533 
2.78507 20 15.2359 
-3.71681 -20 0.597386 
2.44697 -20 16.6788 
14.3161 12.66 0 
1.75689 20 29.7769 
1.09433 20 51.3021 
2.66891 17.9324 0 
-20 -18.9032 76.3907 
-13.988 20 30.9894 
20 -10.1086 55.1937 
20 -13.2732 37.9461 
20 5.72501 74.4343 
12.7895 2.47556 80 
-4.28844 -20 62.3522 
20 -11.1661 3.97362 
-18.8396 11.5302 80 
20 2.13859 40.0602 
15.4333 20 13.9591 
20 -7.18799 9.12821 
-20 10.7579 75.416 
20 10.5188 51.3886 
2.76926 -20 8.05579 
5.6473 -20 6.7005 
13.9248 -20 66.9872 
20 -3.84634 40.6145 
17.928 -20 40.9165 
15.1513 -20 11.9201 
20 14.4423 1.30122 
-6.54014 -20 14.086 
20 13.395 10.2085 
-20 -11.6568 25.3004 
-19.5425 20 38.3659 
-20 -1.17648 77.5294 
0.837569 20 64.9863 
6.45883 -20 55.8679 
5.81651 20 6.53032 
20 -15.387 73.3738 
4.10308 12.9678 0 
-19.1624 -18.1939 0 
-20 -6.40507 32.4769 
-13.3339 20 45.4613 
-11.9115 -20 78.6465 
-3.03949 -20 62.1532 
7.59348 -20 30.1377 
-18.8785 20 20.9775 
-18.0008 20 40.2317 
-4.67919 20 41.2607 
-5.0541 20 17.5297 
10.6959 20 28.9414 
-20 -15.1607 21.6202 
20 -4.56132 67.8694 
10.9856 20 17.5132 
20 3.64307 71.0739 
-20 -14.9955 6.35789 
-9.35674 20 20.5066 
20 -14.7201 33.1782 
-9.70729 -2.67705 80 
20 -0.545021 53.8921 
7.9243 -20 57.0481 
-17.776 20 55.5683 
20 11.3972 70.0126 
-20 12.518 70.198 
-9.97159 3.20013 80 
-5.17576 20 60.5911 
20 -0.0338769 23.2731 
4.16357 -20 9.40193 
20 2.67194 27.5379 
20 -13.5249 41.6328 
-20 -2.78583 47.3147 
19.4528 5.89005 80 
-10.9466 20 4.63336 
-14.7799 20 11.5918 
-20 -18.9551 29.1456 
20 7.37133 9.4696 
20 -15.8411 16.0156 
4.41093 -20 7.13546 
20 9.51515 42.6731 
16.9938 8.30688 80 
20 -14.009 77.1097 
20 -13.0578 4.18801 
17.5599 -16.8194 0 
20 -11.7467 26.4368 
6.35915 20 32.7739 
13.6777 20 23.7346 
20 -10.9756 13.5403 
20 -7.74331 22.0952 
-17.4064 -12.8067 80 
-7.71568 20 38.8239 
16.3507 -20 36.6547 
20 -4.66017 5.0993 
-10.2518 20 26.2916 
9.43321 -12.7308 80 
-17.5981 20 71.589 
20 4.26121 54.964 
20 2.94557 20.6033 
12.3157 20 71.6626 
-6.36299 -3.78398 0 
13.8712 20 47.2969 
1.34171 20 62.8955 
-3.24784 -20 9.53604 
9.42052 15.5983 0 
-3.64291 -4.42502 80 
-2.15876 -17.603 0 
20 -8.93798 59.9086 
20 16.8538 72.4209 
20 12.2703 74.6313 
4.77453 20 72.2041 
17.739 -20 57.4721 
-6.37348 -20 69.541 
-14.1712 20 24.4934 
14.7186 -20 16.4764 
20 -9.01521 49.1747 
20 -13.776 63.3688 
-20 -3.14581 11.648 
20 -0.179267 47.0649 
-20 10.9243 33.964 
-9.2557 20 73.3271 
11.4328 -20 6.13418 
20 -11.4234 39.8221 
11.8701 -20 33.1732 
-3.10531 -20 46.0492 
5.80686 20 12.9229 
-10.3467 8.0832 0 
-18.7274 -20 35.0075 
-20 15.2445 2.19306 
-20 8.73254 57.1071 
-12.5092 20 18.5137 
18.6217 -15.7052 80 
-4.89318 20 55.7306 
20 3.67095 43.0055 
-20 -5.79791 43.6779 
-20 -11.5184 21.6036 
-20 5.99461 25.4734 
17.2484 -20 25.791 
20 11.745 10.7988 
-20 13.011 30.3613 
14.071 -11.7152 0 
-5.89932 20 35.8155 
3.34673 20 50.2597 
-2.75367 3.84314 80 
-3.03919 -20 11.7126 
20 10.4418 9.12878 
20 -19.1029 1.15434 
-20 10.6116 58.0344 
-19.0024 -20 40.8592 
20 -2.21274 74.2072 
16.3857 20 51.3811 
-7.07101 20 49.9001 
-1.0961 -20 68.6219 
20 -15.4046 14.9294 
-20 -19.9845 60.7237 
-8.17066 -20 52.7894 
-17.8843 -20 12.3286 
-5.51336 -11.9604 80 
20 18.822 28.5318 
-9.26837 -20 79.0906 
-19.9386 -20 29.3993 
-11.8929 -17.8853 80 
-6.37256 1.21203 0 
10.3754 20 14.5364 
-13.3056 -20 61.7928 
-20 14.2155 60.7754 
18.849 20 20.6113 
-6.18367 -20 28.1922 
3.91406 7.52986 80 
-1.99838 20 27.7433 
-5.1568 20 24.0863 
20 -9.42758 74.6125 
20 -16.8941 35.3333 
-20 -18.3331 25.2759 
-8.01333 -19.7627 80 
15.2879 -20 77.8179 
20 -8.16124 72.6942 
5.44019 4.97142 0 
9.79348 20 22.1362 
8.25969 20 39.9608 
-8.75167 20 64.6332 
-15.5866 -20 20.9966 
14.9371 14.0226 80 
3.2814 20 41.7332 
13.575 4.52723 80 
1.67094 -20 26.0721 
-17.8028 -20 28.7148 
20 -3.24135 74.0862 
20 17.8595 24.6824 
-2.45621 20 37.4824 
1.22467 20 49.0607 
1.85936 20 65.237 
20 3.04763 8.03749 
20 -11.3734 16.9245 
2.83774 20 9.39778 
-10.8307 -20 54.7995 
7.8743 -20 15.833 
-13.654 -20 63.8984 
-1.98267 20 22.7547 
-20 18.4473 78.8195 
17.2816 8.57753 0 
14.619 20 64.2796 
-12.5308 20 76.0841 
20 -0.545199 51.4828 
-20 8.16593 3.05087 
-17.6795 -20 25.4828 
-20 3.37056 30.6539 
5.92675 -20 52.9272 
-20 -14.9168 30.2301 
-17.7364 0.025281 80 
-0.2773 7.61906 80 
11.9082 15.6861 80 
-8.38488 9.37294 0 
-3.66172 -20 23.4965 
-17.4164 -20 7.82485 
3.33802 -20 71.3253 
18.018 -19.5773 80 
-20 -1.8163 11.2594 
-20 -5.86938 39.4381 
-20 13.4001 26.8376 
6.18771 -20 33.1708 
20 2.5043 65.3439 
12.8826 20 58.4241 
-20 7.08296 23.6151 
20 -4.74385 35.6371 
7.6383 -20 50.313 
-10.7154 5.53454 80 
16.7973 -11.6061 80 
-5.80311 -20 57.6071 
-0.850661 5.33536 0 
6.17983 17.2491 0 
20 8.19262 5.38008 
-15.1895 -13.2332 0 
-20 14.4988 26.8748 
10.6446 20 60.344 
-12.5008 -12.8416 80 
19.5457 -15.4214 80 
10.5427 20 40.7542 
-20 -1.02036 64.1884 
13.107 -1.75338 80 
-8.20327 4.55523 0 
6.0935 -6.22952 80 
-0.925384 20 21.479 
20 16.7383 63.7843 
-17.6497 -20 54.2818 
-15.2803 -0.153521 80 
15.2435 20 0.0604868 
20 1.49273 28.587 
20 9.70341 66.4357 
-3.10631 7.61676 80 
-4.84331 -20 0.914569 
2.5984 -20 75.4019 
20 -2.3602 8.43989 
-20 9.56543 56.5428 
7.681 -20 40.8799 
-10.169 -20 5.63915 
-13.4756 -19.1512 0 
1.10969 -15.0647 80 
-20 -3.33052 52.8914 
-7.85868 -8.75438 80 
-1.84391 -13.9478 80 
-8.82091 -20 16.6514 
18.0887 7.52108 0 
20 10.9059 6.62271 
-8.05571 8.36628 0 
20 -17.5565 79.6822 
-18.9404 -0.155284 80 
-4.20547 -20 32.3422 
13.525 -20 20.73 
-7.32995 5.63823 0 
-3.3155 15.3812 80 
-20 5.2701 0.460315 
-20 7.8154 72.2487 
20 9.60961 58.544 
9.13349 -20 20.8211 
-20 6.15253 53.8321 
2.43222 20 11.9833 
4.21929 -2.30939 0 
20 -17.2066 42.3152 
-20 -12.8704 72.9841 
-4.17659 3.88264 0 
0.042249 20 50.7565 
-20 7.09333 25.8262 
10.8561 20 19.7115 
-13.3892 -20 26.9846 
0.29891 -20 33.1932 
6.15431 20 1.83333 
-20 -8.98231 43.5556 
7.55049 20 62.2999 
3.88388 -20 67.0348 
18.9175 -20 56.1498 
20 15.4468 45.7071 
20 9.13478 61.3517 
-20 -1.38869 41.5878 
4.27712 12.029 0 
-17.4196 20 69.785 
-0.162508 -20 64.3347 
-4.10411 -20 26.4863 
-12.3958 13.9797 0 
-20 3.13488 77.2977 
-0.019381 -20 65.3258 
20 6.72621 1.87705 
3.78213 -20 60.0097 
-20 4.507 70.7478 
-4.4778 -16.8032 80 
-20 -12.634 71.6383 
20 9.88696 79.9207 
17.4661 -3.60065 0 
20 -2.41479 3.33912 
17.7513 20 56.5698 
-20 16.5391 18.1499 
-12.8496 -18.5223 80 
9.01728 -2.41207 80 
18.4522 -17.1809 0 
-20 -2.38878 78.0573 
18.9649 20 11.4371 
-10.1317 14.4906 80 
20 -15.4805 52.0675 
11.2536 20 49.7835 
-20 -13.8857 73.7209 
20 1.54768 18.2569 
-20 14.7568 79.7164 
-11.1153 20 59.2394 
-19.2125 20 3.42299 
20 -14.7149 26.2983 
-12.2463 -20 42.879 
0.198348 20 32.261 
20 -1.80788 70.5187 
5.4403 20 11.9637 
-18.254 0.88071 0 
9.16004 -20 56.813 
-11.8723 -20 54.274 
16.0378 -20 6.58425 
20 3.29755 9.89745 
-4.03406 20 11.3314 
6.29109 -4.10476 80 
15.0953 -20 7.11542 
5.14051 -20 20.4579 
-20 -14.7334 33.4561 
20 12.9453 21.1403 
20 19.814 10.0266 
-1.99046 20 19.9486 
-3.3033 -20 68.3897 
12.6084 14.2664 80 
-1.75694 -20 65.6911 
-6.11 20 75.3235 
-3.07844 -20 76.9379 
6.19097 -1.16539 0 
-15.6265 -20 58.8764 
20 -4.47572 77.9024 
-13.5685 -20 37.9271 
-15.6975 8.81162 80 
-8.37337 20 30.9136 
-13.0057 -20 45.7877 
12.2601 11.7802 80 
-4.63276 20 72.1929 
20 7.58442 60.2427 
-9.36769 20 8.44681 
-11.1199 -4.28723 0 
14.7096 -20 61.7839 
-20 2.30877 56.14 
-9.71812 15.4974 80 
20 -0.831797 45.6568 
5.03211 20 71.0895 
-9.60713 20 41.7385 
-20 11.2372 21.4895 
20 8.81509 8.24784 
20 -13.9977 78.6438 
-16.0639 -2.47274 0 
-1.19717 -20 74.4205 
-5.1296 -9.82682 80 
-12.4756 20 7.07385 
-17.9246 -20 41.8109 
20 -13.4361 1.57451 
12.3091 -20 46.2441 
-0.176063 20 65.9734 
20 -0.430863 49.5233 
-18.7052 20 63.4088 
-20 -4.76607 18.3692 
-10.5728 -20 78.1267 
-20 3.49685 46.4873 
-20 4.95931 32.1551 
-10.1528 2.75636 0 
15.9221 -15.9749 0 
20 -1.39184 69.4912 
20 8.33036 12.3328 
-8.48067 20 34.5746 
20 10.7984 36.2109 
7.17683 -5.2402 80 
-20 -19.812 42.4276 
19.6762 20 12.2439 
-13.3166 -20 19.6008 
-20 4.64339 22.3096 
20 -5.27909 40.2355 
20 19.1385 31.8578 
20 -0.843229 35.8515 
-5.90174 -10.3474 0 
20 -16.9584 14.8787 
20 13.5659 27.4447 
12.6886 -20 32.2281 
-15.7216 -20 6.70749 
20 -16.9333 11.2891 
6.52061 -20 71.1553 
-10.6174 20 43.4866 
-20 5.56979 3.02573 
13.2697 17.4656 0 
-20 9.10841 4.59437 
20 -17.4265 36.2032 
-1.75406 -3.42913 80 
13.3424 11.2135 80 
20 -7.05791 58.0244 
-16.255 -20 44.5092 
-20 -11.2089 7.61494 
-20 -12.078 4.18497 
2.21309 -10.0303 80 
-10.0633 20 17.8234 
-14.5654 20 75.4745 
-2.57554 -20 45.2216 
20 10.178 46.6939 
7.46347 -20 46.4584 
-1.67873 20 75.413 
20 -15.8781 54.3938 
-6.55566 0.105224 80 
20 1.70295 71.0913 
-20 17.1493 78.4912 
-2.11505 -20 61.0092 
-20 6.86733 8.5448 
-3.91682 20 37.8326 
-3.18816 -20 48.625 
-8.65285 20 76.3754 
20 18.0901 22.5877 
-17.7619 11.7984 80 
-13.4873 -20 40.1068 
-12.3127 -20 49.6654 
-8.90207 -20 61.203 
4.56012 10.5476 80 
-20 8.34018 8.21274 
20 0.456698 53.9736 
20 15.4663 48.8658 
12.2651 -15.7704 0 
-3.42632 20 52.1658 
-15.1127 20 4.42306 
20 -6.95975 52.3759 
-14.1655 -20 45.2615 
-9.01543 -12.4139 80 
-8.84032 -20 59.2138 
20 -10.0636 48.8717 
20 11.0974 79.7224 
-20 3.74842 45.2726 
-19.0005 20 47.8841 
-20 9.71849 20.6988 
-15.1611 20 10.6416 
11.8556 -20 56.3636 
20 0.298889 7.49544 
-14.661 20 47.925 
5.56554 -20 8.62221 
-20 2.0331 77.7654 
20 17.0463 79.951 
-12.345 20 39.9179 
9.02652 8.89738 80 
20 -12.9559 22.371 
-14.8441 20 26.6566 
-15.5747 -20 68.1359 
20 -3.41483 59.1751 
-20 16.416 8.53748 
20 -9.90103 19.4452 
15.6536 3.55986 0 
-6.2129 -20 50.4812 
-20 -2.11155 52.9214 
-20 14.0282 30.356 
-20 19.03 67.2767 
7.90528 -20 45.4633 
-1.91025 -20 0.0675106 
5.2405 20 34.5059 
0.620656 1.52164 0 
20 4.36805 26.7963 
20 -15.1225 39.9217 
-20 15.0215 3.49662 
20 18.8313 12.0949 
-20 17.9744 68.0812 
-2.98804 13.8708 80 
-10.6369 20 68.1274 
-20 12.9794 16.5322 
13.2538 20 30.8393 
11.9355 16.7221 80 
19.855 20 59.051 
-6.37939 20 41.1634 
9.5407 20 68.4423 
7.59367 10.9044 80 
13.8332 19.4036 80 
20 6.4521 46.1655 
10.3411 -20 65.8999 
-11.1128 -20 44.1144 
18.7602 20 19.1587 
20 -1.50269 9.30397 
-20 18.8856 74.3578 
11.8255 20 38.0837 
20 -4.27879 65.0587 
20 -13.7651 44.1301 
17.3737 15.6497 80 
20 14.1226 61.8137 
11.2251 20 56.6437 
6.37637 20 65.6655 
-7.61597 3.72775 0 
-0.800771 -20 65.9196 
9.79477 20 39.8905 
-20 -7.00531 25.8634 
-6.05263 -20 45.048 
7.54808 20 33.5028 
-20 13.515 51.8033 
0.717121 -20 72.7457 
-20 -4.16843 25.5493 
-20 -17.977 73.5631 
13.7218 20 70.7836 
-19.0276 16.1973 80 
20 -2.78629 40.572 
-20 12.0934 6.8144 
0.305687 -20 32.1483 
7.57925 20 37.0975 
-4.04929 -14.3861 0 
-20 -12.4537 17.5356 
14.7224 -20 63.4213 
20 -8.81364 11.7114 
15.5121 20 76.6062 
17.8787 20 69.5305 
20 -4.98268 51.5596 
6.07205 20 78.375 
11.3167 20 9.22959 
-20 0.344288 8.49719 
20 13.7008 33.2909 
19.7827 -20 1.76195 
9.49112 -20 68.4483 
-20 -0.0738242 53.2884 
-20 -12.2173 30.9796 
-16.0209 -20 0.537519 
-20 -6.67001 6.79448 
16.606 20 31.1218 
20 7.42236 73.1733 
20 -5.62793 21.7458 
-20 4.41401 73.9717 
-13.7669 -20 34.9522 
-20 14.4762 54.2173 
-20 11.5633 67.2655 
13.221 20 3.83754 
20 19.1845 52.015 
-19.2039 20 51.2802 
13.8178 20 16.1189 
20 19.0243 27.2279 
-18.9881 -5.02243 0 
-20 2.27872 29.2063 
20 10.809 66.3289 
-7.99517 -4.36557 0 
15.9514 20 18.9754 
20 -2.94564 60.9516 
3.29066 -10.3303 80 
-20 3.62931 17.0742 
20 1.65841 62.408 
20 17.9956 3.07509 
-20 14.5987 33.6674 
-20 16.9001 21.9176 
10.4548 6.29525 0 
-19.447 -15.8615 0 
-18.7036 8.06174 0 
20 4.52914 16.6361 
18.3182 2.4353 80 
-16.9052 20 26.3456 
-20 0.875798 23.43 
-20 -4.24093 12.166 
3.81742 -20 53.0299 
19.2641 -0.516901 80 
20 -8.01715 14.6829 
-12.341 16.2357 80 
17.2613 20 29.1561 
10.7328 -20 50.9499 
-16.3784 20 69.4798 
-20 14.3095 53.2217 
-19.2349 15.5753 0 
-8.22776 -16.5417 0 
20 -8.15452 1.55591 
6.49316 20 37.6956 
-2.04087 20 79.8726 
1.75437 -18.9239 0 
18.861 20 45.7551 
5.35183 16.2975 80 
-13.9613 20 23.1283 
-20 19.928 13.8009 
7.61914 -20 69.2594 
20 -17.9441 11.1695 
20 -15.8075 24.5448 
-20 15.2977 29.6763 
-20 1.09941 0.30869 
-20 5.73387 8.69682 
-20 -12.023 77.0222 
0.83086 -20 7.32357 
-20 -4.76898 42.0039 
-20 5.06179 11.6594 
-16.5769 -20 76.1432 
5.36097 -9.33242 80 
5.98568 20 29.0449 
10.6475 -13.7326 80 
3.5414 -6.28885 0 
20 -17.0381 45.5604 
-20 -10.2079 40.6461 
-20 -14.5648 11.8169 
-10.5263 -20 14.2866 
-10.6043 20 78.4778 
-14.6739 -20 46.8795 
18.0145 -20 38.892 
6.65648 -20 50.1327 
-9.76194 -20 36.9149 
-5.04659 3.20724 80 
-20 15.0335 39.1875 
18.9656 -17.5441 80 
-12.1942 -20 0.740103 
-4.91214 -20 36.5609 
-20 -10.4522 50.0995 
4.55284 20 35.814 
20 0.736641 43.6313 
20 0.714707 9.58441 
9.18757 -4.66854 0 
-6.94461 20 74.4488 
-3.94476 -20 69.1635 
10.7026 20 22.4898 
-20 -1.1381 66.8979 
20 -4.75056 72.8459 
15.539 20 31.5812 
16.5685 1.19809 80 
8.81566 -20 37.3805 
10.2931 -20 45.764 
20 18.4602 70.0882 
20 8.72757 57.4872 
20 -15.3041 55.4195 
-14.4723 19.2992 80 
20 -13.3219 15.7792 
0.776091 15.2372 80 
-15.4075 -14.7158 80 
20 -4.92936 48.7411 
20 -4.39659 74.4003 
17.6515 -17.8757 0 
-20 -6.36813 15.3893 
-8.99642 20 28.7623 
14.5401 -20 19.3919 
18.1075 20 28.4801 
9.09803 -8.29102 80 
-20 -7.08659 37.8497 
-12.3333 11.0837 80 
3.70177 20 63.671 
15.4061 -20 23.1217 
20 -0.0136588 52.7626 
18.1768 4.76287 0 
-15.7985 12.8052 80 
20 -8.17713 2.66243 
-11.0887 -20 43.0711 
20 -5.46232 46.0968 
-1.03726 -20 7.14386 
-20 -9.63212 59.6787 
-20 -3.36993 49.4154 
-20 -4.00111 2.10523 
20 -14.7574 28.4299 
-20 3.86347 61.372 
20 17.1397 76.1877 
-12.3346 5.88643 0 
-20 -5.38031 44.7049 
9.63217 -20 21.8068 
16.0898 20 1.63369 
20 19.055 66.8253 
-9.51726 -20 45.9791 
-19.492 -20 14.7718 
-20 -7.93788 57.6754 
20 -16.9772 33.0078 
-10.9397 -20 37.0107 
20 11.7439 15.8269 
20 4.58391 8.73807 
18.8529 -11.4787 80 
12.0933 -2.06484 80 
10.4524 20 38.1439 
-20 -10.0742 65.2159 
15.6078 20 35.9656 
-20 -14.1816 25.9918 
-5.63074 20 3.77706 
-20 9.19708 72.3784 
20 16.3863 26.0469 
19.828 15.4914 80 
-20 12.6462 38.9335 
20 10.7191 45.7164 
-20 -12.2953 35.145 
20 -6.14474 69.5958 
19.1323 -9.23916 80 
20 -17.4849 50.8891 
20 11.4861 20.7958 
-1.37726 -20 31.0866 
9.92495 0.283599 80 
1.59729 14.2726 80 
20 -5.87743 15.4291 
-1.99453 -20 47.8989 
-20 5.6758 68.1051 
-20 -9.38516 44.4617 
-11.1794 20 44.4402 
20 19.7714 32.6681 
20 -6.97276 6.44914 
-7.37726 20 30.5362 
-15.8714 -20 72.1406 
-19.1246 -3.14542 0 
-18.0041 20 16.9975 
20 0.329531 65.7533 
-17.0817 14.7832 80 
20 6.82 23.3857 
-20 0.160971 21.3958 
8.88837 20 20.5298 
-1.39458 20 38.6453 
0.809188 11.2674 80 
-3.19566 4.00192 0 
2.0263 20 28.0899 
7.65991 -20 53.3324 
6.47093 20 48.9543 
0.00294924 20 7.38326 
11.28 13.1886 0 
-12.985 20 71.3138 
-20 18.0061 8.40472 
-0.295125 -20 69.6326 
8.5871 -20 2.10896 
17.5224 20 24.9083 
13.6882 20 63.7797 
17.431 -20 52.082 
4.73604 -15.756 0 
-12.267 -20 50.718 
16.8066 20 58.6602 
-20 0.901277 37.7988 
-5.35874 -3.14908 0 
-20 16.9229 36.7627 
20 -11.7011 76.8341 
12.8518 20 28.5224 
20 -6.14995 27.5699 
-20 -2.34567 63.8794 
-20 9.17585 25.9206 
14.0209 20 10.0773 
13.9808 -17.2745 80 
-20 12.9822 65.4695 
-10.4784 20 66.2538 
-13.9812 20 71.2984 
-16.8067 -8.36321 0 
20 -16.1026 27.4592 
18.1016 9.71851 0 
19.1495 -20 22.2679 
20 17.5664 19.9372 
-11.5746 20 2.2695 
-17.5145 20 38.4722 
13.0686 -0.585948 80 
-18.4554 -20 51.1801 
-20 16.1396 10.7017 
-3.92057 5.2621 0 
20 -13.3178 74.215 
-2.94413 -20 74.6981 
4.27622 20 1.91213 
20 10.9363 33.3035 
17.2771 -6.32635 0 
-1.88467 -20 1.1213 
-20 9.68785 66.8431 
8.33339 -20 11.7581 
20 -13.861 36.545 
10.3256 -20 7.92693 
20 -14.8843 1.0769 
-17.8158 20 75.9141 
-20 6.83463 19.8956 
-20 4.52001 46.1099 
9.05399 19.25 80 
8.75313 -20 50.1684 
11.0911 20 72.4698 
9.91772 14.5964 0 
-20 13.0284 61.177 
12.2872 20 70.138 
-18.0018 -20 29.6719 
-5.28093 10.5183 0 
-20 0.711398 39.8449 
3.22372 20 2.71604 
-6.14931 -5.44078 80 
-20 12.8574 42.3555 
20 15.0053 9.54123 
-20 -18.3253 71.5511 
20 -1.20999 46.6375 
-0.524428 -20 15.4296 
-2.25882 -20 21.7618 
-20 2.18488 75.4944 
9.63762 -20 9.69606 
-20 -2.65454 73.1022 
-20 3.30485 73.839 
-19.1875 20 6.14391 
20 3.43437 67.4762 
-20 -11.188 50.9933 
-20 -14.8715 74.3024 
-0.609374 20 61.2222 
20 -7.42103 42.0067 
-9.15395 -15.8636 0 
-4.32708 -1.92754 0 
-20 2.71887 44.2962 
-11.8762 -20 66.5392 
20 18.5291 13.1305 
20 -14.6992 15.6762 
-1.10643 0.900965 0 
2.53072 20 27.2035 
12.0125 -11.0477 0 
-20 -17.2398 34.8436 
20 -10.9328 34.2413 
-20 12.8658 58.3789 
-20 13.0812 23.2812 
-6.77413 -20 16.3179 
-10.1724 7.01183 0 
-20 18.8768 6.13667 
20 13.4969 72.3337 
20 -11.6282 46.3176 
-18.0528 -20 68.6907 
15.4139 -20 8.11165 
-20 -9.19428 60.6643 
-14.4434 20 33.0762 
14.1173 20 24.7077 
14.4225 20 15.036 
-20 16.3415 50.1318 
17.9333 -20 44.3402 
-8.83273 18.6295 80 
20 11.8364 35.3361 
-0.550685 20 54.8631 
-4.14388 20 17.175 
-6.07715 20 4.93625 
15.5845 20 56.6475 
-20 -9.93631 3.4004 
-1.69061 -20 36.101 
20 17.0179 61.3427 
3.38825 -4.75137 0 
-20 2.55966 74.4949 
-20 4.197 50.7392 
-20 6.79601 10.4528 
-11.6618 -5.0962 0 
20 9.6666 69.0963 
-0.664222 -16.3949 80 
5.32403 -13.1611 80 
-20 -17.7726 44.2889 
16.6039 -20 51.2109 
-20 -1.55186 29.9894 
0.847973 20 15.9473 
2.47549 20 29.0957 
-10.2894 5.83319 0 
-10.9065 20 12.1573 
13.6649 -20 32.477 
-19.0281 20 34.9122 
15.0813 11.2979 0 
-4.67514 18.9734 0 
20 10.5334 55.5371 
-20 11.6488 9.67946 
14.8286 20 20.7306 
-13.8179 20 53.9167 
5.46793 20 68.2594 
20 2.00297 24.3621 
-15.7433 -20 24.3195 
10.4644 20 73.4199 
20 -17.8739 69.9477 
20 -13.1113 77.9138 
-20 -17.3245 57.5046 
-10.0917 -20 4.46365 
14.8239 6.57905 0 
-20 -19.0194 30.3321 
20 12.7816 77.1785 
11.4051 18.6846 80 
-20 7.93806 19.6076 
-15.2298 20 49.9227 
-20 -11.512 0.491087 
20 -14.7478 36.1428 
1.49068 20 69.2635 
-19.1076 20 28.9659 
20 0.221455 8.69636 
4.62127 20 76.8562 
-20 6.14953 67.1253 
13.8256 -3.67689 0 
10.6145 20 49.055 
9.19991 3.5148 80 
2.45936 20 74.7269 
-7.46922 11.035 0 
20 1.64621 7.91906 
20 -15.3136 8.96668 
-2.4044 20 31.5025 
20 9.31862 72.3576 
10.5635 19.9715 0 
20 -19.9454 57.4131 
13.472 12.4227 80 
20 5.5052 43.6279 
-14.7277 19.9513 0 
4.0451 -3.62004 80 
-3.26869 20 49.1917 
-20 -11.4477 32.9512 
1.13896 20 5.6017 
-20 6.06189 76.0698 
-9.9949 -20 33.9392 
-15.4402 20 33.6226 
-20 8.50097 36.3195 
7.69129 20 38.1726 
20 -3.41414 34.1377 
20 -11.8852 77.8462 
0.890293 20 38.3876 
-20 -8.56738 73.2767 
20 14.912 72.4671 
20 -13.6151 8.83875 
13.0336 20 5.54684 
-20 9.08413 35.0228 
-7.79071 -20 33.3436 
-9.80673 -20 10.0816 
-6.11954 -12.1562 0 
20 -15.8435 26.5304 
1.2557 7.47918 0 
-13.5719 20 6.05771 
17.7324 16.0667 0 
3.68723 -20 18.6574 
19.4259 20 2.92874 
-2.7757 -20 36.6052 
-5.98415 -20 23.5409 
-9.80876 -20 75.8281 
-20 -6.62736 28.8874 
5.31531 -20 42.1605 
9.15998 4.63422 80 
-0.246826 20 48.3686 
-9.5283 -20 67.6657 
20 10.7688 77.5823 
7.05282 1.2875 80 
20 -4.61586 10.7555 
20 6.65987 79.2431 
15.2695 16.1929 80 
20 -9.65357 6.67832 
-6.75261 -20 24.3479 
-18.0968 20 13.398 
20 8.9585 71.2921 
16.3728 -8.09888 0 
-20 -3.55673 39.3909 
-20 -15.9032 41.3549 
17.0721 20 37.5478 
-9.7024 -20 35.9089 
10.2314 -20 57.2741 
-20 -8.28231 77.2951 
20 1.5685 3.74093 
-8.9169 20 10.4791 
5.54057 -20 50.6529 
-13.4426 -12.3525 80 
-3.60567 -20 1.57822 
20 5.36894 46.2538 
-12.4127 -20 63.7619 
11.6549 9.50107 80 
-2.10512 -11.0003 0 
2.85203 5.85478 0 
-8.46641 -10.9064 0 
20 9.40221 70.2965 
20 7.82273 6.40302 
0.780849 -13.2778 0 
20 -19.1297 48.3505 
-18.8577 -20 25.4143 
20 12.109 69.2657 
-15.8095 11.6535 80 
12.1589 -6.33171 0 
13.8803 -20 74.4816 
-8.86691 -13.4255 80 
16.1086 20 32.3677 
3.66798 6.49407 0 
16.0962 20 48.4998 
10.6766 12.3899 80 
-17.5934 -20 36.1064 
8.92799 -15.6447 0 
2.73484 -7.31155 0 
20 -16.0152 31.7183 
-20 -4.91323 76.8186 
-20 -14.9253 41.5288 
-16.2378 -20 77.8421 
11.0129 -7.74769 80 
4.7069 -20 52.3137 
20 -1.35481 52.9004 
-7.28752 20 41.6393 
-6.56725 15.3527 0 
-20 6.10282 64.3956 
-20 -9.17484 76.6882 
8.46151 -20 35.6664 
3.43461 20 71.9292 
20 0.340304 75.701 
7.05318 4.96028 0 
-10.1734 -8.21493 0 
-5.70354 20 36.9032 
-13.7731 20 34.0643 
20 6.74788 75.7626 
-2.60833 5.62814 80 
6.59101 20 43.8366 
-9.05101 -20 24.3165 
-20 3.79816 37.7312 
3.0523 4.68673 0 
20 -18.5205 71.6056 
-1.44701 20 71.8469 
-18.7186 6.81302 80 
9.27016 -20 7.54474 
2.88902 20 31.5527 
-20 17.5513 51.0245 
-3.08815 -4.45144 0 
-5.77898 -13.2285 0 
9.91827 20 72.5302 
-11.1663 7.43779 0 
9.61791 -20 39.0662 
20 -4.16389 64.1093 
5.47245 -14.2314 80 
2.51897 20 69.0085 
5.63981 -20 55.3686 
12.6549 -8.34584 80 
11.6615 -20 67.5316 
3.65176 -9.33819 80 
20 -2.04519 20.0453 
20 -9.90966 36.2709 
10.6576 18.0202 80 
-14.0954 20 29.9881 
-1.20988 -13.1551 0 
2.67734 20 16.8779 
20 -16.5215 49.4267 
-20 -7.41203 9.77206 
-14.3478 -0.65834 0 
20 17.6828 53.1609 
20 13.6923 4.02042 
-0.938282 20 39.9785 
20 -1.96496 28.6155 
2.28691 17.3231 80 
-20 -5.34198 69.6626 
8.31924 -20 21.6279 
-5.88093 13.765 0 
-8.06325 2.81942 0 
-14.1332 -20 1.4288 
20 14.7043 40.3403 
-20 2.95109 76.3232 
-20 13.9952 16.1504 
7.61179 20 17.4985 
20 6.78349 64.4665 
-8.75899 -3.1563 80 
-0.515647 9.44685 0 
-8.92953 9.97566 80 
-20 -7.79197 50.6741 
15.0706 20 7.29735 
-20 12.7532 66.5583 
17.054 -20 6.92971 
-20 2.35942 2.16287 
10.4454 -20 14.3574 
-20 -16.2938 14.8851 
-11.2969 20 68.895 
20 -0.505351 17.994 
-10.0536 -20 0.46709 
-20 15.9655 7.66995 
6.23777 20 22.2961 
20 -9.59511 12.346 
20 -1.29577 21.3534 
-1.14806 -20 18.6395 
18.167 20 53.7093 
20 4.39419 73.1979 
-13.8042 -18.2181 80 
-6.94645 -20 53.0335 
-11.722 -20 28.0865 
-20 17.5203 18.8166 
18.1623 20 44.9679 
-2.12801 2.10289 0 
5.00191 -20 25.7102 
-20 3.48179 74.9054 
20 1.41235 76.0458 
-20 -19.8036 38.5406 
5.87201 -20 54.3594 
-1.20021 -17.433 80 
12.2033 20 29.3358 
8.90527 20 56.8194 
20 5.728 69.6368 
-20 4.06491 0.928989 
5.77235 -5.32098 80 
20 -13.9128 0.695975 
-20 3.51177 71.7996 
15.6834 5.72635 80 
11.9115 -20 4.12947 
-20 -8.53563 39.7939 
-20 8.60391 37.4301 
-20 0.127739 24.5817 
1.46483 8.5597 0 
-20 17.6815 40.4408 
20 -17.5031 56.1697 
16.1954 20 67.1542 
20 -17.7106 67.7636 
19.6533 -2.74601 0 
20 2.56648 53.2221 
-13.5006 -20 41.1546 
-14.6709 -12.1954 0 
-7.09925 -20 57.087 
12.5606 -20 15.928 
-2.54973 -13.0932 80 
-11.9762 20 77.2983 
1.69424 -20 44.2214 
20 11.7936 45.8416 
14.4725 20 57.5339 
20 11.7363 62.0431 
-19.6836 -20 52.2874 
-19.7644 20 33.4603 
-16.771 4.07174 80 
-20 3.04059 18.4912 
7.25859 -6.22875 80 
-20 -1.97216 34.5605 
-6.01767 19.5049 80 
20 -14.9562 68.2551 
12.1972 20 16.9941 
-20 8.78288 78.8585 
-4.89999 -20 5.22475 
20 0.158566 67.3991 
-20 -1.19964 33.787 
9.79192 20 49.7385 
8.12274 -20 28.8359 
9.90884 -20 19.231 
17.144 20 53.4199 
4.53866 20 25.8487 
20 8.17949 7.44686 
20 12.4739 27.0792 
-20 -3.14746 13.2004 
18.4793 20 2.59767 
20 -2.9755 39.157 
7.33865 -20 17.9826 
-13.7527 8.6909 80 
1.8702 -16.9238 0 
20 -3.74433 35.2756 
-16.5686 -20 4.92407 
11.6164 20 42.0754 
2.29804 20 37.3433 
-2.15571 20 49.5718 
-20 5.08379 59.9186 
-20 -4.93937 38.9074 
-1.98129 20 66.2851 
20 -0.264267 57.0043 
20 -17.4454 29.6113 
-17.5775 8.91612 0 
20 -6.99881 48.4848 
-20 18.7661 17.6187 
16.7224 20 44.4884 
-8.01449 20 52.5189 
20 10.2335 38.6414 
8.05403 1.23954 80 
-1.0044 10.6012 0 
1.03748 13.426 80 
-14.9684 20 6.03212 
-20 5.02285 14.0484 
-6.76056 -20 45.828 
-11.2864 3.62478 80 
10.9729 -6.35943 0 
7.92637 -3.07931 80 
20 -5.352 14.2145 
-15.2914 -20 39.873 
10.5969 20 16.5726 
20 9.14907 34.9422 
20 -19.9438 0.654097 
-20 -1.9649 36.0153 
0.958204 -20 69.3946 
20 -9.55548 70.25 
-16.1644 10.2798 0 
-20 -7.13287 33.2651 
-20 -19.8933 32.7094 
20 -0.266389 58.9559 
-14.7572 20 2.95581 
-12.8876 -20 53.0518 
-14.3017 20 52.8517 
-16.3964 20 25.5063 
7.9313 -20 44.417 
-5.53316 -20 70.5351 
16.2706 -16.3295 80 
-5.52578 12.4616 0 
-5.50831 20 26.8115 
-14.1358 -20 8.23118 
19.533 20 22.8441 
19.7104 0.317402 0 
20 16.1329 60.9331 
-20 17.2992 57.1584 
16.5666 -20 60.129 
20 8.7595 28.8897 
-11.7568 20 54.5924 
20 -7.8602 40.0411 
20 8.23434 35.271 
-3.09829 -10.2853 80 
8.60516 -20 40.0974 
-20 13.3539 13.1372 
1.67192 -13.6654 0 
-20 2.63156 21.6881 
20 -15.1682 51.0258 
20 0.712425 49.0887 
-4.91626 11.6503 0 
-17.2015 -17.9349 0 
-14.3383 13.9634 0 
-2.05305 -20 20.8276 
20 16.0633 13.9307 
20 -15.2506 5.7913 
20 -17.4317 4.25735 
5.36471 -20 45.7976 
-8.42645 -20 48.9733 
-13.6214 13.2505 0 
-13.0247 -20 21.0289 
-20 -12.2989 36.2175 
2.4245 -20 35.6008 
3.46643 20 21.9856 
9.85165 20 6.33924 
20 -13.7757 29.2405 
-20 15.3014 50.0091 
1.31195 -20 37.6096 
-20 14.1294 11.2681 
-20 -7.66334 63.2351 
-20 18.7155 47.6957 
20 -1.00631 74.0147 
-20 12.9536 31.3318 
20 -0.410092 22.0889 
-6.61953 -20 29.8519 
-20 5.57805 19.7021 
13.0837 -20 19.6698 
-5.75268 20 19.0285 
6.79636 20 69.919 
-6.82773 -20 73.1355 
-20 18.6675 66.2525 
-20 -14.0755 51.5859 
-5.04247 18.9216 80 
20 17.7348 59.2055 
20 8.02651 54.0745 
3.87891 6.49661 80 
-20 -5.99229 76.729 
20 16.4808 69.4192 
17.6145 20 65.7103 
-18.1886 -13.4056 0 
20 4.58608 62.4274 
-15.6647 -20 56.3335 
-0.725674 -20 57.2957 
5.1487 20 31.8309 
4.54061 20 5.15349 
-20 11.1869 53.5778 
-16.9238 -20 24.3221 
-20 3.82367 29.805 
16.1524 -20 70.361 
20 2.82062 57.2646 
-20 -14.3808 35.5587 
-16.7066 8.81492 80 
7.97106 20 6.10681 
-16.5633 20 74.2964 
19.5472 -20 18.0592 
-15.7844 15.5464 0 
-15.2551 20 24.4942 
18.3405 7.81032 80 
3.64521 20 55.7988 
1.28213 -18.0666 0 
20 -10.1306 33.3116 
0.562473 -20 13.794 
-20 -19.6624 7.60651 
16.7071 3.21197 0 
-20 0.0557857 20.2333 
-4.42795 20 1.4925 
20 -12.852 69.5452 
-7.41088 9.86197 0 
20 18.7009 43.5253 
20 16.3254 75.0792 
20 9.78643 41.7001 
16.7023 -20 27.1855 
2.68486 -13.6363 0 
-3.95835 20 32.8444 
20 -5.0267 11.9417 
0.504241 -11.1186 80 
-20 -7.64084 14.7338 
-20 -17.5304 24.1248 
-20 12.0918 45.4964 
13.7716 -20 56.6844 
1.45815 -14.704 0 
3.07703 20 28.3469 
19.1198 20 54.0976 
0.0656391 -20 2.30808 
14.5063 20 1.40224 
7.39887 20 23.9529 
-20 15.1579 15.8163 
6.21984 -20 11.8997 
-1.48993 -5.8554 0 
11.6529 -20 77.9021 
-20 -4.58677 40.9401 
13.8252 20 76.7954 
-20 -7.54726 29.7948 
20 -1.40521 78.2175 
20 2.39864 35.7353 
-20 -7.82792 6.11856 
-20 5.69023 30.5243 
13.3877 -20 45.3314 
20 15.2821 26.3082 
20 -1.36128 62.5691 
20 -8.21665 58.4048 
5.30407 20 13.8666 
-17.4204 20 24.886 
-20 7.59696 26.9534 
-8.62047 -20 34.4792 
5.89496 20 23.9512 
20 -18.2094 37.1552 
-16.4285 -2.95407 80 
18.9813 20 36.9572 
3.21778 0.656641 0 
-7.55203 8.95199 80 
20 -3.69899 73.085 
2.02264 12.9764 80 
-1.30438 20 65.1034 
20 -7.46945 35.5653 
7.81945 -20 27.709 
2.24377 19.9977 80 
20 -15.7364 64.7678 
0.113218 -20 39.6058 
3.47696 20 11.4059 
-20 -12.1377 13.5568 
12.3772 20 36.2617 
20 -13.7082 75.2479 
-20 15.0666 37.254 
14.2461 -20 49.3989 
20 6.46259 48.2849 
-15.344 20 79.8291 
20 -16.1581 39.6054 
-13.8336 20 44.4346 
-19.8365 20 5.44219 
-20 -11.0417 65.8572 
-20 -6.43143 44.6198 
15.2941 -13.1501 80 
20 -18.8267 60.4965 
9.26303 -8.73969 0 
-20 18.8714 75.7574 
-20 14.5219 4.87429 
20 -15.3343 67.2789 
-19.9558 -8.44699 0 
17.5998 -20 61.7082 
-20 -15.6119 11.1519 
-18.5362 -10.3877 0 
-13.5801 -20 72.5547 
3.12602 -20 28.2622 
14.6169 -20 60.7434 
7.46164 -1.87116 80 
20 14.6005 62.6545 
15.0737 -4.2464 0 
-14.3542 14.6375 80 
-9.78207 0.824081 0 
18.7549 -20 34.7176 
-17.3263 -20 40.8906 
-20 9.39751 73.4524 
-20 0.322978 55.0085 
-20 -15.5094 20.6739 
20 -6.62579 36.4561 
20 0.782829 72.6716 
13.0623 -20 72.6853 
17.9019 -20 78.9809 
10.4719 14.1481 80 
10.4124 -1.81914 0 
20 -18.6681 20.8452 
-20 8.82949 24.7835 
8.16912 7.0923 0 
-7.23908 20 9.3479 
18.8154 14.8069 80 
-20 11.2564 45.9729 
-20 -16.1703 66.597 
11.3763 16.4486 0 
13.646 -20 28.7931 
-10.8169 20 50.3991 
-20 -13.1714 6.74686 
-20 -4.48836 70.3808 
19.2555 20 24.0548 
10.7173 20 57.7805 
-14.773 20 34.5913 
20 -9.45555 62.5396 
-20 -0.576874 35.3461 
-12.2894 -20 47.9524 
-1.06345 20 42.1377 
-20 -16.0548 18.4095 
-20 -12.3276 78.1602 
-20 -9.0835 56.4124 
-20 19.5021 52.1782 
-20 6.43077 28.6121 
20 -8.41146 15.9345 
4.23103 20 20.7311 
5.7333 14.191 80 
-8.45401 20 39.5382 
15.2261 20 5.10204 
-20 -4.89885 35.4475 
2.61393 -20 25.0768 
11.6381 -20 47.8632 
-13.4957 1.28357 80 
-5.99617 -20 60.2217 
20 -13.8898 68.7309 
-20 15.4148 28.2072 
15.9149 20 43.3302 
-5.94706 11.5481 0 
-20 -17.645 28.8291 
1.89532 12.34 0 
17.6877 1.26 80 
16.8204 -20 57.9108 
17.3016 -20 17.0826 
-20 4.23569 48.9001 
19.0346 -20 63.3206 
-18.743 19.4998 0 
-4.47549 20 29.1693 
5.93666 8.03137 80 
5.87863 14.7446 0 
-5.06301 20 42.4128 
8.75314 0.200954 80 
-18.7586 20 4.29441 
20 6.51478 60.3439 
-13.8079 -20 77.0207 
-20 -15.1884 14.7418 
20 2.7136 51.2522 
-16.3789 -20 28.4686 
-20 6.85666 63.2623 
13.7827 0.338087 0 
20 16.3821 18.2247 
-20 -6.55231 45.699 
-20 -18.6867 8.13527 
-8.83561 -20 41.5455 
20 6.15176 22.4799 
12.8713 -20 4.76008 
-15.7384 20 0.208849 
-20 -16.3144 8.28722 
1.54539 -20 57.9151 
10.5768 20 59.3657 
2.39846 -20 39.7426 
-6.68953 -20 19.7612 
-0.372038 3.6079 80 
8.63896 -20 46.0799 
7.96212 20 45.7044 
13.9772 20 19.5577 
-4.44632 20 6.55914 
-15.6976 20 19.6576 
14.9286 20 37.713 
-19.2125 -20 63.5027 
-20 7.16459 78.1924 
20 -16.6115 77.5333 
-20 -5.02605 27.355 
-20 9.87296 33.0556 
18.2884 20 41.0786 
-11.8563 -20 73.9105 
-17.7968 8.7566 80 
-20 -6.27397 71.2039 
13.4124 20 54.4742 
-19.9309 16.844 0 
-7.47087 20 17.5065 
20 4.8733 34.2581 
-20 13.7758 0.101094 
-7.99617 17.7449 80 
8.33565 -20 25.0366 
20 5.17388 50.0998 
3.68293 -14.4032 80 
-20 0.469265 17.9534 
-20 2.22261 42.6478 
-9.98806 20 13.4618 
-20 -16.8827 30.6217 
20 15.0481 59.9901 
5.24992 9.85552 80 
18.9977 6.7851 0 
20 -4.25015 19.0274 
12.772 -20 61.3057 
20 -2.40308 26.6274 
-0.554661 -8.96857 0 
12.0914 -20 72.543 
-3.7094 0.357885 0 
20 -12.4328 65.1104 
20 -9.15856 17.6917 
-11.0085 -20 65.5264 
-20 -14.9325 51.0491 
-10.1914 -20 10.9592 
5.26107 20 75.824 
8.54472 20 33.7863 
3.76963 -7.36615 0 
20 11.5307 50.7457 
20 -19.0212 16.1141 
-18.7151 20 25.2667 
-19.0205 -20 30.4119 
11.008 -20 58.0416 
0.69309 -20 27.3897 
20 -0.703846 38.1601 
-10.428 20 69.9784 
-20 17.5061 28.3501 
-11.164 -20 45.2996 
20 -15.0884 4.61954 
15.3165 -10.2227 0 
20 -3.16389 33.0993 
-11.3293 5.74051 0 
-8.454 -9.66452 0 
20 -3.24641 46.5693 
20 6.63795 43.099 
7.80172 -20 3.15415 
-10.1481 20 2.96227 
20 -19.9697 11.7402 
15.9907 15.2045 0 
20 -9.8886 15.5723 
16.7155 -20 33.6102 
-20 13.0444 6.91047 
-20 7.48995 24.9056 
-20 -4.54857 7.48358 
-0.969261 -20 67.5403 
-1.29534 -9.64891 0 
20 -14.1072 56.576 
5.16843 -1.66896 0 
-2.42793 -2.02775 0 
10.8913 -10.6899 0 
18.3905 -20 7.16049 
14.6592 -20 32.8251 
20 17.9617 16.856 
20 16.1792 34.7909 
-10.9726 -20 19.9537 
-13.0655 -20 35.9378 
20 -10.5352 45.4551 
-17.9117 -20 15.5916 
-13.7213 11.3145 0 
20 14.337 63.5777 
10.1447 20 71.1413 
19.5037 20 1.85781 
-2.81826 20 14.3996 
-20 -0.470837 78.1772 
-20 11.6631 48.0556 
-14.6713 20 50.7342 
17.7097 -20 7.87199 
20 -17.4006 21.2601 
2.25004 -6.3404 0 
-20 11.4149 39.2428 
-5.54278 -20 4.40327 
-20 3.04715 38.7048 
3.82571 -20 47.1294 
-20 -5.17111 12.4803 
-13.3296 -20 51.0523 
8.89666 -20 42.1848 
13.4996 -12.49 80 
6.59742 20 68.9346 
-1.98151 18.8531 0 
9.4051 20 78.4345 
16.2068 -3.66647 0 
-15.6655 -20 76.8548 
4.57943 -20 32.4489 
5.30593 -20 23.9132 
-1.89361 20 69.8154 
-20 -19.6222 21.9158 
-12.4139 -20 65.6448 
18.9426 20 27.6214 
20 5.62526 34.8689 
-10.3732 20 35.1162 
-10.034 20 36.4916 
-12.5339 -20 3.4018 
-9.21146 -9.10428 80 
13.4183 20 27.7442 
20 2.68916 71.3455 
1.86663 20 70.5427 
-15.0809 20 38.9932 
-20 -7.95194 10.5602 
-20 16.7934 30.1873 
5.45332 -20 38.1979 
-20 2.51089 17.6827 
1.36194 -20 9.61512 
-11.677 -5.35234 80 
-12.6332 -20 4.68175 
-20 6.25983 66.1091 
-20 11.575 28.3827 
14.7495 -3.17066 0 
18.2057 19.777 80 
-20 -5.52987 45.8538 
12.0455 -20 37.7286 
20 -6.38978 22.8427 
-20 9.65792 68.4417 
14.5508 20 53.7001 
20 4.66959 51.3824 
12.3189 13.1823 0 
20 9.82689 60.6233 
-15.4324 -10.9109 0 
-20 6.93314 70.7484 
3.4515 20 47.0182 
-6.23435 -20 72.2915 
-14.6709 -20 38.5566 
15.8595 -20 15.7657 
20 15.3814 38.8554 
-12.9214 -20 69.6967 
13.7659 20 48.3554 
10.2767 3.45552 80 
-16.0255 -20 10.6112 
18.8948 11.8629 80 
-14.4441 -20 5.34297 
-0.734241 -20 78.8707 
-17.4021 20 30.5216 
16.5687 -20 35.0943 
-6.71891 -20 44.2476 
20 7.67882 71.1396 
3.89355 -19.4683 0 
2.74939 -20 59.9031 
2.4055 -15.7781 0 
0.0941732 -0.0516322 80 
-17.7082 16.5719 80 
-20 -9.35473 4.50139 
20 -18.4869 31.7152 
-20 10.829 15.1628 
9.99689 20 5.38002 
20 0.671923 21.9122 
3.8425 20 64.8869 
20 -2.72581 27.9226 
20 -4.00441 66.9786 
-7.8762 20 19.6987 
20 -5.92564 51.7846 
-2.54167 -20 5.88974 
3.19114 20 60.4747 
-20 9.46218 31.7156 
5.33191 20 27.8905 
11.1032 -20 42.4404 
20 2.72234 42.8632 
20 -4.12899 4.14097 
-20 0.342381 60.8805 
2.15648 20 24.9987 
15.7147 20 62.9427 
-1.50583 -20 54.7361 
4.19891 -20 36.0352 
-20 10.0019 11.2837 
1.1262 20 21.6046 
-2.86975 20 24.5896 
-3.09933 -20 22.3403 
-20 16.5954 23.713 
-8.99039 -1.26291 0 
-15.831 20 43.8527 
7.59931 20 64.8739 
3.49653 -1.31858 80 
-7.63828 -5.47685 80 
-6.29817 20 76.4617 
-4.2735 20 2.54818 
20 9.40931 14.9841 
-12.9467 20 29.2588 
11.5673 -20 78.9167 
9.9234 -20 40.1154 
12.7344 -20 74.5297 
15.2463 -20 59.5264 
12.0774 20 31.0678 
-20 -11.8363 18.6847 
20 -3.6801 6.59221 
10.499 20 52.7346 
20 9.77259 40.5616 
14.9096 -13.7016 0 
-20 9.99918 62.9342 
-20 11.8674 8.68341 
15.9491 -20 57.2539 
-5.77849 -20 75.0292 
-8.31855 20 23.9093 
-20 8.46432 55.6607 
3.68202 -8.34998 80 
20 1.82311 38.0664 
-20 1.18181 14.4462 
20 -12.9384 76.7959 
14.2062 2.38517 80 
-3.29744 -20 10.5621 
20 12.404 66.6853 
8.37724 20 55.6598 
12.8007 -20 71.0708 
20 -19.4097 35.0874 
-20 1.34128 8.82567 
-20 0.971031 11.7847 
7.15988 8.72001 80 
-5.19438 -20 26.9047 
2.83491 6.23293 80 
-16.5588 20 68.4787 
-1.78942 -20 62.5162 
-20 12.0344 43.4248 
-14.8455 -6.54764 80 
20 -13.8533 34.4276 
-16.7617 -20 58.7179 
17.8896 -1.67513 0 
-20 -2.43613 31.2699 
-9.64876 -15.208 80 
-20 -3.77633 50.8401 
-20 2.87556 61.5452 
20 -1.13631 17.2312 
-2.61974 -20 23.6426 
-20 12.7885 46.2594 
20 -4.48633 23.2724 
-20 5.17853 1.59489 
-20 14.726 52.1102 
-20 7.60397 9.20048 
16.7875 20 17.0171 
0.873146 -20 70.4915 
-8.60687 20 41.6383 
-13.0829 14.5036 80 
-12.8636 20 35.099 
3.73362 20 69.5059 
-16.3389 13.7034 80 
-14.3028 -20 32.4539 
-20 9.03351 50.1272 
0.587604 20 33.381 
20 8.81716 40.8295 
-3.36707 -20 41.0923 
-1.25294 3.18887 80 
-20 -9.12608 65.922 
11.4379 20 47.6286 
-17.0203 11.2528 0 
-3.56896 20 40.6405 
-20 -5.79717 23.0902 
20 -2.29987 55.8255 
5.61761 20 35.6845 
-6.14595 20 18.1117 
-20 -13.0317 37.7383 
-0.409128 20 38.434 
6.70768 20 70.9867 
-18.1117 20 14.9823 
-20 -9.26635 68.4355 
15.5586 20 34.8752 
6.33379 -20 24.1971 
-20 -3.55221 77.4624 
15.9233 20 41.4465 
19.4292 -20 25.8171 
-20 3.49447 65.7587 
20 14.7144 47.3461 
20 -10.06 7.67147 
13.874 -2.65448 0 
20 12.1829 78.1362 
0.244701 -0.90184 0 
20 16.2488 10.1544 
19.2522 -2.45377 80 
-5.55872 -20 66.8156 
19.9684 20 14.7471 
3.14706 14.4618 0 
-5.34405 20 63.9425 
18.5804 20 12.4301 
-20 16.2193 78.972 
-2.12301 -11.5061 80 
-7.74154 20 35.2351 
-20 -10.53 15.8091 
6.5632 -20 59.2121 
20 13.9455 21.0885 
-3.75839 20 39.6921 
16.3271 -10.6437 80 
-17.311 -20 55.3605 
10.8437 20 66.0311 
17.6234 9.02465 80 
-18.8808 20 66.7814 
3.99066 20 54.503 
2.08054 20 43.1067 
-20 13.2714 43.4341 
19.5842 -20 54.8868 
-20 -16.2054 1.92742 
-20 -16.488 3.12662 
-8.91282 -14.384 80 
-18.5917 11.3843 0 
-9.39721 20 25.7899 
20 9.11637 4.85057 
-20 -7.75784 34.2414 
-10.6014 20 49.3719 
-13.4959 7.29279 0 
-20 -9.25533 6.69239 
0.00758672 13.6765 0 
-20 -6.82135 60.5077 
9.67908 20 15.3046 
-20 0.0918722 74.7757 
1.34426 -20 50.4939 
20 13.2787 61.3513 
20 8.2407 75.8812 
-12.5267 18.0174 0 
14.0931 20 32.0941 
2.65437 -11.9986 80 
-20 -18.9921 79.5976 
-20 1.95088 62.3756 
2.30859 -20 57.216 
6.57635 -20 38.7626 
12.8392 -20 68.9927 
16.9562 20 28.2195 
-16.4219 -7.16119 0 
-20 -18.6202 37.5795 
20 2.05379 43.6796 
-7.23598 -20 78.1151 
-20 -2.25318 44.0599 
-20 1.32708 21.6115 
-20 -9.88561 78.0061 
7.15203 20 36.0308 
7.28858 -20 24.5678 
-9.79799 -20 22.5512 
-19.3939 5.98567 80 
-20 -9.07902 24.7035 
-3.25018 20 75.1998 
8.22849 -20 52.4379 
-9.4757 -7.3842 0 
-14.8632 4.01872 0 
3.59124 -20 56.7651 
20 -7.05348 69.1499 
17.1997 -0.795675 80 
20 -19.0058 18.4783 
14.9634 13.7264 0 
-0.0579662 20 72.6929 
-4.46394 17.8111 0 
20 6.91139 37.6459 
-20 -0.622255 29.2189 
-13.2712 20 16.9914 
-20 -7.38143 45.1356 
6.81467 10.9585 0 
-20 16.4869 1.71674 
-7.08292 2.29229 0 
16.7596 20 20.1875 
-0.902908 -20 1.58093 
-20 9.12439 77.0231 
-20 18.5715 35.4103 
-20 -1.27291 58.1938 
-0.885662 20 45.1253 
20 10.0386 34.3897 
20 2.50224 64.2503 
0.398533 20 23.0823 
20 5.58302 51.7185 
-17.7412 6.73923 80 
-0.789339 -20 77.5337 
-20 -0.0345087 67.664 
10.3645 7.32509 0 
-0.678834 13.5309 80 
2.12237 15.4768 0 
20 -16.4195 55.9727 
-20 8.18034 61.7335 
-20 -19.9001 45.2156 
-20 -4.6747 60.0089 
7.23834 -20 5.28902 
12.4389 7.67106 0 
-20 -13.2512 15.5994 
20 -15.317 65.8014 
-20 -12.3313 8.28247 
20 15.0139 13.6924 
-20 15.6409 13.6125 
-1.48349 20 12.384 
8.20281 -1.23636 80 
-20 -18.4676 13.6969 
20 -9.19358 14.5782 
20 -19.2274 59.5734 
14.8785 -20 67.7291 
-20 -3.94841 60.9286 
-20 11.8 66.2584 
9.53948 -13.7003 80 
20 6.13793 62.7932 
19.0436 -20 21.2313 
-19.991 -20 64.2073 
-4.77142 -13.1095 0 
18.7599 5.82946 0 
4.11179 -20 50.7168 
-20 -6.44439 73.4614 
-20 -13.7906 66.1565 
-0.710752 20 32.695 
-20 15.9202 69.498 
-1.27687 20 74.0943 
-14.4358 20 37.9097 
18.5688 -20 9.79433 
-11.8998 9.07342 80 
20 3.35968 7.12648 
-20 -18.1657 33.9892 
-14.0995 2.39063 80 
14.1493 -3.98645 80 
5.16809 -20 53.6407 
-10.2264 20 73.2332 
4.44326 20 6.40209 
-20 -1.04371 53.3792 
-13.4097 -20 71.5341 
-1.18299 20 26.2196 
-20 15.1742 56.4933 
-20 -14.7271 44.7887 
-17.1083 -20 26.2655 
8.90614 -20 44.4264 
-19.8332 -20 55.8174 
20 -4.05035 50.3761 
-19.4295 7.46587 80 
-20 -3.81393 38.1397 
-18.2042 -20 40.2036 
8.68578 20 15.6735 
1.4314 20 75.6167 
20 -5.78556 41.3238 
-20 -12.3163 53.1415 
-8.31204 20 37.2172 
20 15.9305 79.0555 
12.8206 -20 48.0963 
-20 17.4132 59.3737 
-5.70849 10.9959 80 
20 -12.515 51.569 
-20 14.2297 50.6412 
11.0704 20 64.073 
-20 9.84132 2.63029 
20 -10.0966 32.0132 
-20 -1.26601 32.0521 
4.43278 -20 40.5428 
20 -19.0829 58.3773 
20 1.45686 61.2509 
-12.3341 7.20946 0 
-11.4654 -11.5495 80 
-7.96697 -15.4151 0 
-19.8494 -7.55426 80 
-10.2074 -1.48987 0 
-4.94269 -20 68.9627 
-20 -19.1018 32.1727 
-4.91861 20 64.8408 
-12.782 -11.2179 0 
-19.803 18.8488 0 
20 15.7596 15.1149 
-20 19.8423 35.6331 
-2.28421 20 26.3051 
-20 -11.796 3.26265 
-18.0819 20 29.835 
