ply
format ascii 1.0
comment VCGLIB generated
element vertex 2168
property float x
property float y
property float z
element face 0
property list uchar int vertex_indices
end_header
4.69304 40.046 0 
17.6423 5.57001 0 
6.31814 20.9361 6.31814 
29.9832 39.9296 0 
21.4424 29.6246 0 
27.5835 38.8746 0 
32.5295 22.9528 32.5295 
40.5438 38.6923 0 
5.307 22.6192 5.307 
31.1502 22.857 31.1502 
16.1801 24.4363 16.1801 
31.2315 33.9448 0 
23.8911 36.2692 23.8911 
29.492 43.9492 29.492 
6.99433 38.4799 6.99433 
7.44515 33.9084 7.44515 
41.3857 15.6938 0 
14.0444 6.65705 14.0444 
18.3772 19.4914 0 
21.2962 32.1768 0 
5.30844 36.3449 0 
33.6817 13.1282 0 
24.6659 27.6171 0 
9.50983 26.1023 9.50983 
21.5552 41.3567 0 
23.5415 2.49415 0 
6.739 13.2181 6.739 
4.48307 13.4231 4.48307 
34.4468 9.09169 0 
25.8835 1.89764 25.8835 
10.4333 9.99808 0 
31.4372 33.4093 31.4372 
5.91487 2.95301 5.91487 
20.1017 28.989 20.1017 
3.1448 10.7786 0 
10.9072 24.6297 0 
20.9733 42.8463 0 
30.4124 23.9611 30.4124 
35.9005 25.35 0 
29.596 20.9153 0 
16.1992 15.6951 0 
30.4816 46.6802 30.4816 
2.92098 42.3862 2.92098 
8.4767 24.244 8.4767 
13.5208 6.75884 0 
17.1714 37.598 0 
13.2784 3.93447 13.2784 
23.6742 10.9426 23.6742 
39.4166 47.1355 0 
11.0649 25.6226 11.0649 
27.8473 4.69015 27.8473 
16.2643 39.9813 16.2643 
36.3978 5.30206 0 
5.68174 42.9321 0 
16.4934 17.3483 16.4934 
26.3952 40.3662 26.3952 
30.9618 31.1826 30.9618 
38.4753 17.7962 0 
9.601 30.4364 9.601 
10.9822 23.9575 0 
12.8729 48.9597 12.8729 
32.5449 46.1573 32.5449 
1.79337 20.9584 1.79337 
23.5128 45.4783 23.5128 
32.5248 32.2819 32.5248 
4.73833 49.9147 0 
21.5439 4.26559 0 
34.8388 37.5194 0 
25.8705 34.3378 25.8705 
19.2223 49.9289 19.2223 
31.2794 41.683 0 
14.5851 10.8195 0 
27.3906 24.6024 27.3906 
22.6248 18.8055 0 
22.3232 1.73802 22.3232 
2.0777 1.92193 0 
32.5585 30.9781 32.5585 
18.4311 26.9434 18.4311 
29.2943 17.0802 29.2943 
2.81057 43.25 2.81057 
8.57415 8.16665 0 
29.6617 1.81701 0 
7.58656 1.8602 0 
9.92868 39.6655 9.92868 
17.3776 32.9934 17.3776 
21.7081 27.5689 21.7081 
37.195 48.3061 0 
15.7033 2.76771 15.7033 
13.1517 42.6529 0 
25.1328 49.5125 25.1328 
18.4781 31.0899 0 
11.8358 13.6285 11.8358 
22.198 15.0326 22.198 
23.6846 18.0203 23.6846 
1.3415 22.3091 1.3415 
10.6431 22.3293 0 
29.0858 34.9638 0 
39.3246 45.3086 0 
30.8691 20.1175 30.8691 
33.3487 10.7387 0 
28.8643 46.3263 28.8643 
12.6359 32.2039 0 
40.2264 25.5114 0 
5.69044 7.64129 5.69044 
0.828118 12.6618 0.828118 
25.1003 0.176248 25.1003 
17.018 46.0389 0 
26.4221 47.3198 26.4221 
25.1659 30.5001 25.1659 
7.42607 43.5046 7.42607 
13.1835 3.30081 13.1835 
16.079 20.4066 16.079 
12.2066 29.7975 0 
27.6344 25.3678 0 
7.46716 18.5395 0 
27.3545 0.220317 27.3545 
9.6241 28.0465 9.6241 
32.149 36.5841 0 
28.1233 18.9205 28.1233 
10.2903 46.861 0 
41.2972 26.6148 0 
33.8935 11.1895 33.8935 
15.9648 36.5952 0 
31.814 38.0681 31.814 
21.2014 5.11336 21.2014 
24.6384 49.2029 24.6384 
28.8188 9.40702 28.8188 
26.0737 3.92125 0 
30.3337 2.37366 30.3337 
7.39531 17.0028 7.39531 
20.077 17.12 20.077 
33.9558 40.6762 33.9558 
32.6147 24.6486 0 
33.9382 33.8199 0 
14.3804 21.9113 14.3804 
30.1949 41.0576 30.1949 
29.8078 21.2657 29.8078 
10.3507 40.7 10.3507 
30.8792 26.8028 30.8792 
8.59581 2.89854 0 
30.0031 26.4405 0 
17.3697 28.3596 17.3697 
10.7675 43.1283 0 
3.76127 48.2105 3.76127 
25.248 26.5474 0 
8.13903 41.8602 8.13903 
11.5305 12.5882 11.5305 
24.9392 1.9038 24.9392 
2.00594 40.7614 0 
30.2071 40.2071 30.2071 
32.0664 30.8906 32.0664 
32.8907 44.6992 0 
28.5176 9.88711 28.5176 
16.7731 12.6161 16.7731 
32.1827 45.3121 32.1827 
5.90183 48.7639 5.90183 
13.4088 32.416 0 
25.1681 46.3622 25.1681 
25.1778 25.1063 25.1778 
17.9085 0.00672454 17.9085 
22.4837 35.4898 0 
19.7729 19.141 19.7729 
33.2873 16.075 33.2873 
22.6708 40.1251 22.6708 
30.2794 11.7944 0 
33.2606 49.0512 33.2606 
12.5833 47.7775 12.5833 
29.4392 25.6586 0 
38.2018 29.9448 0 
3.62334 2.17068 3.62334 
0.0278125 21.0563 0.0278125 
14.5487 11.4648 0 
11.0792 14.2515 0 
0.508755 32.4804 0.508755 
5.47523 31.6729 0 
26.9659 24.0482 26.9659 
22.9471 11.9096 22.9471 
25.3742 9.9271 0 
22.182 33.2678 22.182 
0.62218 19.0968 0.62218 
34.1771 13.6426 0 
11.0995 1.07594 11.0995 
29.7846 1.33992 29.7846 
33.1337 8.10313 0 
24.4057 26.9497 24.4057 
4.44841 15.6622 0 
30.6772 2.84319 30.6772 
5.76866 12.8133 5.76866 
16.2668 31.7593 16.2668 
2.71061 6.49579 2.71061 
37.4054 24.9003 0 
37.118 26.1539 0 
19.3364 12.5382 0 
19.7558 49.8471 19.7558 
12.8586 19.2118 12.8586 
24.3994 16.8248 24.3994 
3.19571 14.8336 3.19571 
25.2479 2.28015 0 
19.1443 23.2096 0 
18.9031 47.9331 18.9031 
30.6203 28.7617 0 
22.9576 29.8701 0 
22.3647 25.8675 22.3647 
16.2793 29.1153 16.2793 
27.3803 4.51477 27.3803 
13.1966 27.7389 13.1966 
3.25056 34.9608 0 
0.978205 48.2653 0 
22.2012 32.6289 22.2012 
4.907 30.5145 4.907 
17.8152 14.9566 17.8152 
4.06338 16.4007 0 
20.2576 33.7335 0 
25.2631 11.778 0 
5.09579 2.74797 5.09579 
21.5195 1.61447 0 
5.92088 44.5159 5.92088 
7.82147 44.6555 0 
27.4989 0.97701 27.4989 
13.1776 46.964 0 
17.0037 47.3005 17.0037 
33.3115 34.1231 33.3115 
39.4847 46.0043 0 
30.8728 17.4681 0 
23.3474 9.77911 0 
18.7275 14.9018 0 
16.0848 38.1499 16.0848 
23.7308 21.4269 23.7308 
20.1338 24.1171 0 
27.3395 49.7917 27.3395 
4.74075 1.77394 0 
31.2049 26.347 31.2049 
28.1224 37.6485 28.1224 
32.2284 38.3462 32.2284 
24.4264 0.719815 24.4264 
7.66695 40.174 0 
33.2827 26.3026 33.2827 
16.9906 38.8758 0 
29.835 45.1235 29.835 
31.6385 36.9672 0 
33.9646 10.2184 33.9646 
5.68293 48.168 5.68293 
28.8418 17.3038 28.8418 
20.6874 40.4511 20.6874 
24.4511 16.8113 0 
1.46203 5.90932 1.46203 
23.3872 46.766 23.3872 
15.5163 40.165 15.5163 
22.951 24.5336 22.951 
11.3669 37.0335 11.3669 
26.4393 31.2903 0 
8.94304 0.785398 8.94304 
13.9589 11.0952 0 
31.8129 39.2566 31.8129 
20.2803 47.5975 0 
15.6857 24.006 0 
1.10437 6.64207 0 
0.0347617 24.3774 0 
3.19666 26.0692 3.19666 
3.37814 44.3982 0 
31.0254 10.1246 0 
38.7529 27.2116 0 
27.3014 46.303 27.3014 
20.2901 3.68395 20.2901 
30.3172 31.4763 30.3172 
10.6768 19.6427 10.6768 
19.5516 49.1786 19.5516 
9.73318 35.8037 0 
0.730257 43.674 0.730257 
8.51274 26.0712 8.51274 
39.9608 39.1506 0 
18.8706 43.3376 18.8706 
9.34186 34.0288 0 
23.001 11.8803 0 
8.13804 1.85474 8.13804 
34.2157 22.876 0 
40.619 36.362 0 
19.028 24.7199 0 
17.327 36.0083 17.327 
17.743 8.66216 17.743 
18.243 21.3032 18.243 
5.64225 9.46026 0 
27.4616 35.8224 0 
30.8201 14.6574 30.8201 
10.3568 23.1766 0 
14.1873 11.7463 14.1873 
6.62807 34.7898 0 
35.8947 34.2782 0 
32.8878 27.0803 32.8878 
1.48128 40.6467 1.48128 
12.4425 49.8946 0 
28.2878 36.613 28.2878 
19.2224 38.5882 19.2224 
29.5938 3.64871 29.5938 
6.19959 0.0747046 6.19959 
29.9832 13.526 0 
4.80847 32.8552 4.80847 
0.958345 30.7671 0 
6.66384 35.5007 0 
18.5904 46.8796 18.5904 
9.09395 9.24062 9.09395 
0.642007 29.5077 0 
8.59814 1.53464 8.59814 
22.4856 6.16572 22.4856 
32.5405 3.71706 32.5405 
28.4062 20.3565 28.4062 
23.3274 29.0573 0 
4.41166 33.5965 4.41166 
4.31372 32.9137 4.31372 
12.5766 14.8922 12.5766 
14.5879 5.87361 14.5879 
21.0793 27.4118 21.0793 
18.1249 40.3141 18.1249 
35.4185 6.60527 0 
15.8904 0.189995 15.8904 
17.7311 25.3214 17.7311 
9.2261 32.7364 0 
27.3644 17.6566 27.3644 
32.5359 39.1176 32.5359 
12.7183 24.3424 12.7183 
13.3067 20.3244 13.3067 
13.8894 0.146106 0 
3.47008 14.8654 0 
11.0835 38.7804 11.0835 
0.0702871 45.9061 0 
17.8869 49.8461 0 
28.0357 49.9747 28.0357 
24.5926 15.8725 24.5926 
2.89861 4.52217 2.89861 
19.6811 39.0237 19.6811 
0.598571 42.1205 0.598571 
25.1597 35.8373 25.1597 
10.083 27.7274 0 
24.5196 9.82552 0 
14.8486 25.2026 14.8486 
24.2561 49.9188 24.2561 
24.6625 46.4397 24.6625 
21.4634 0.0538141 21.4634 
10.366 18.5317 10.366 
4.10702 44.7478 0 
14.8027 33.6972 14.8027 
32.5336 47.7185 0 
28.7913 32.8547 0 
29.2214 24.1897 29.2214 
6.56633 46.9414 0 
23.7531 23.6857 23.7531 
6.58627 17.9957 0 
2.80504 26.5412 2.80504 
26.4004 41.9065 0 
23.0927 14.0709 23.0927 
10.1609 28.0284 10.1609 
32.4015 41.8757 32.4015 
25.9094 10.8438 25.9094 
23.528 24.5721 0 
29.2541 16.3387 29.2541 
8.42817 33.3472 8.42817 
10.4362 25.4595 0 
24.1267 15.6267 24.1267 
27.5003 28.6681 0 
16.936 27.9545 16.936 
3.65056 46.9868 3.65056 
9.48039 0.17564 0 
25.8142 7.9075 25.8142 
5.4615 30.5183 0 
19.9603 30.3879 19.9603 
26.669 17.3665 0 
12.153 38.5801 0 
17.3608 16.6736 17.3608 
31.8739 33.6932 31.8739 
11.503 36.1948 0 
6.24766 28.8711 6.24766 
6.66223 48.0129 6.66223 
38.1318 21.5474 0 
19.6033 34.8102 0 
3.96864 27.6468 0 
32.3666 35.3552 32.3666 
10.3487 39.981 10.3487 
40.7501 33.4155 0 
10.078 38.4344 10.078 
22.5721 6.81928 0 
3.56239 23.3042 0 
2.60903 17.6857 2.60903 
8.23651 2.56974 8.23651 
16.2273 4.94159 16.2273 
40.446 28.3974 0 
33.1391 9.45309 33.1391 
28.6957 12.757 0 
15.537 20.7867 15.537 
28.0528 38.9435 28.0528 
18.835 10.3381 0 
26.9177 44.9207 0 
12.0179 37.0363 12.0179 
8.96868 15.6629 0 
35.6592 5.92341 0 
18.4215 42.61 0 
25.3697 5.10596 0 
3.91737 45.5429 0 
35.0162 11.172 0 
28.1292 35.8722 28.1292 
9.23365 45.4691 9.23365 
3.99079 2.49935 0 
22.204 2.62811 22.204 
11.7412 26.1181 11.7412 
23.1215 31.0845 23.1215 
30.6145 49.904 30.6145 
20.2658 0.125968 20.2658 
14.0727 42.617 0 
32.4031 48.6664 0 
31.0918 19.1016 31.0918 
13.798 11.7191 0 
36.6161 34.1963 0 
22.1425 29.2154 0 
27.8721 39.578 27.8721 
16.4793 18.0759 16.4793 
14.4883 0.11389 14.4883 
1.1241 46.845 1.1241 
31.5919 31.9736 0 
5.4278 19.3902 5.4278 
25.9074 49.4195 25.9074 
9.64443 31.2935 9.64443 
31.7906 10.5822 0 
0.0825597 45.2642 0 
24.4252 3.95544 24.4252 
12.514 49.2427 0 
7.74613 42.3057 7.74613 
19.5883 13.3306 19.5883 
25.5896 11.325 25.5896 
29.6865 25.9555 29.6865 
27.5638 1.62259 27.5638 
28.5821 37.9033 0 
6.71599 29.3688 6.71599 
18.4504 30.6684 18.4504 
40.232 34.0729 0 
2.91477 45.1168 0 
13.4764 7.61791 0 
15.6924 42.4648 0 
27.2401 15.644 0 
33.2737 3.1395 33.2737 
3.7008 33.6554 3.7008 
38.3605 45.6478 0 
25.1357 6.42426 25.1357 
15.4491 3.00233 0 
29.1301 11.4213 29.1301 
8.16249 1.20008 8.16249 
13.3877 1.72463 13.3877 
41.4327 18.3543 0 
22.736 49.989 0 
19.6004 0.0536472 0 
36.9848 21.2311 0 
0.0116098 14.1729 0.0116098 
6.58972 12.8758 0 
18.0996 30.4686 0 
21.3671 10.9154 0 
39.3852 10.6196 0 
20.1505 20.1562 0 
19.9292 21.4969 0 
34.7348 7.32901 0 
23.6641 44.849 23.6641 
17.4332 32.2599 17.4332 
31.3621 42.7378 31.3621 
11.3306 8.59502 11.3306 
24.8838 3.09801 0 
10.3937 29.4978 0 
10.3604 48.23 10.3604 
1.18114 40.109 0 
22.177 44.912 22.177 
41.3072 35.7793 0 
12.8405 7.02584 0 
16.1329 18.5255 16.1329 
14.2969 23.6681 0 
13.0513 6.30077 13.0513 
38.7233 31.3468 0 
27.0547 13.1958 27.0547 
8.06192 28.4306 0 
32.1786 8.51071 32.1786 
13.3179 23.3464 13.3179 
30.8594 5.42323 30.8594 
25.8856 42.294 25.8856 
31.1165 43.3041 31.1165 
21.9561 19.3039 0 
28.0998 3.62125 28.0998 
0.848057 20.7644 0 
36.667 9.24258 0 
8.25386 2.13754 0 
17.9623 42.5139 17.9623 
27.4461 14.9072 0 
30.9521 39.9109 30.9521 
9.39081 15.56 9.39081 
11.5073 4.78656 0 
21.642 38.6013 0 
38.3852 43.8314 0 
27.4526 29.7512 27.4526 
6.98586 1.54128 0 
6.64959 14.2923 6.64959 
7.80833 3.35535 7.80833 
33.0954 14.3294 33.0954 
18.6004 28.7657 18.6004 
19.2248 15.0483 19.2248 
30.3254 41.8145 30.3254 
30.6079 29.131 30.6079 
37.2072 8.86522 0 
21.7374 2.53219 21.7374 
12.6921 45.037 0 
26.6138 7.53609 26.6138 
33.9945 45.4732 33.9945 
34.3917 12.9169 0 
3.57479 34.2857 3.57479 
13.8207 31.835 0 
1.46831 35.2636 0 
25.8883 37.043 25.8883 
22.4893 14.471 22.4893 
40.9881 39.1826 0 
17.0287 7.68965 17.0287 
26.9433 25.774 0 
3.70973 42.7717 3.70973 
22.1894 27.1191 22.1894 
22.7192 35.0455 22.7192 
14.1134 9.39935 14.1134 
7.39987 26.2354 7.39987 
34.6353 1.34523 0 
30.7184 34.7877 30.7184 
3.17518 15.8667 0 
23.6751 12.4451 23.6751 
22.9704 48.1265 0 
3.97199 13.9944 0 
12.1493 14.1103 12.1493 
25.8761 23.3505 25.8761 
14.8086 14.7329 14.8086 
21.0313 25.4745 0 
24.4519 29.0493 24.4519 
18.9206 22.5869 0 
25.1169 45.2325 0 
12.2983 36.6484 0 
5.87137 18.1796 0 
5.33584 42.2493 0 
3.38668 11.2015 3.38668 
15.5582 35.8603 0 
32.9369 23.4203 32.9369 
28.5978 1.80649 28.5978 
18.3112 31.4677 18.3112 
16.531 31.1188 16.531 
19.6433 26.4117 0 
31.2064 34.6214 0 
11.5109 38.7557 0 
3.87797 10.9157 0 
0.0269721 1.42269 0.0269721 
34.0059 10.4468 0 
10.3619 48.9572 10.3619 
8.57497 16.6654 0 
12.5774 6.43127 12.5774 
33.9237 46.3493 33.9237 
0.512138 13.4009 0.512138 
32.5476 24.4139 32.5476 
8.43229 20.1954 0 
27.5503 41.8259 27.5503 
30.7311 7.28225 0 
1.49224 23.0264 1.49224 
9.61806 49.439 9.61806 
5.38055 41.5909 0 
24.6285 4.70915 0 
16.2875 21.4279 16.2875 
20.6093 5.39811 20.6093 
33.7306 42.6727 33.7306 
31.7856 17.0208 31.7856 
14.7621 49.9228 14.7621 
32.9582 0.0424713 0 
13.1764 15.6576 13.1764 
21.639 19.9012 0 
18.4903 37.3005 18.4903 
17.0143 26.6423 17.0143 
12.9195 9.60433 12.9195 
10.8324 48.4038 10.8324 
21.4465 3.23296 21.4465 
19.2312 30.1535 19.2312 
4.39498 0.00617717 0 
4.77929 16.6804 4.77929 
24.7797 41.547 0 
13.9193 43.8689 13.9193 
17.8413 1.03077 17.8413 
29.9423 35.8407 0 
10.3558 31.77 0 
27.0287 42.5995 0 
16.9422 13.7637 16.9422 
39.4042 35.0774 0 
29.6 48.1663 0 
38.8655 34.6804 0 
10.0006 12.1485 10.0006 
39.9656 36.5103 0 
6.72674 23.0501 0 
15.1024 17.1547 0 
22.7292 12.7359 0 
25.2014 23.4982 0 
34.2873 11.1998 0 
22.9319 16.0317 22.9319 
0.0474743 17.5418 0 
35.7225 37.4383 0 
16.388 1.37448 0 
30.065 19.3728 0 
37.4584 38.6932 0 
41.3843 6.5263 0 
25.1695 41.8702 25.1695 
25.9027 39.1738 25.9027 
11.1065 7.36612 11.1065 
23.1942 38.2567 0 
9.77739 26.7648 9.77739 
16.8973 44.2281 0 
1.13046 16.0318 0 
10.0698 30.097 10.0698 
37.0649 36.5785 0 
19.8455 7.06697 19.8455 
16.2597 37.2082 16.2597 
22.5213 10.4202 22.5213 
18.5326 40.6477 18.5326 
4.05248 17.8978 0 
39.5856 19.3039 0 
20.3221 37.6159 20.3221 
0.510273 21.5848 0 
11.9467 41.7511 11.9467 
30.6429 45.9553 30.6429 
14.8079 35.5871 14.8079 
29.2463 39.5333 0 
28.5638 3.07007 28.5638 
11.142 14.9806 11.142 
7.99141 29.6872 7.99141 
7.18116 42.766 0 
41.3403 44.511 0 
24.0087 11.983 24.0087 
12.4641 19.9355 12.4641 
17.0183 34.2476 0 
22.0599 48.9916 0 
28.9094 13.5014 28.9094 
0.0985888 13.4219 0 
18.8021 3.31788 0 
17.8023 16.333 17.8023 
9.37602 32.2741 9.37602 
2.85379 24.7457 2.85379 
27.8429 9.83435 27.8429 
16.6494 34.6942 16.6494 
15.7548 12.3477 15.7548 
13.3606 37.6402 13.3606 
29.394 3.93725 0 
16.1618 3.28599 0 
8.98492 28.1784 0 
31.8733 33.4921 0 
35.7406 25.9729 0 
1.07989 14.3795 0 
28.1082 24.7762 28.1082 
7.47293 25.5451 7.47293 
20.2234 17.7658 20.2234 
15.532 17.0937 15.532 
9.55178 25.3594 9.55178 
20.7057 2.35399 20.7057 
19.093 47.1002 19.093 
33.8813 22.172 0 
24.396 47.2421 0 
7.86364 16.4908 7.86364 
29.6591 41.8116 0 
14.0615 46.3796 14.0615 
19.5452 6.45549 19.5452 
1.53089 6.78214 1.53089 
26.0807 39.9054 26.0807 
13.016 18.6017 13.016 
29.9624 7.43525 29.9624 
5.3211 10.06 0 
0.866988 29.2266 0.866988 
8.86346 41.1569 0 
27.7103 14.1647 0 
4.0139 13.3056 0 
25.0493 41.1977 25.0493 
10.6712 3.35901 10.6712 
3.28323 29.3076 3.28323 
28.7896 49.9936 28.7896 
25.903 6.99025 25.903 
27.2426 39.4465 27.2426 
12.3486 47.031 12.3486 
8.47315 34.1641 0 
11.797 0.201177 11.797 
5.93047 29.2803 0 
38.0699 12.9826 0 
15.0421 27.5099 0 
17.208 3.3902 17.208 
30.533 15.1804 30.533 
15.6592 14.8359 0 
18.9855 30.7399 18.9855 
29.5742 31.028 29.5742 
15.6408 46.7862 15.6408 
7.40078 28.565 7.40078 
0.90071 35.6332 0.90071 
33.9228 33.6617 33.9228 
21.9877 20.5278 0 
13.1131 34.5696 13.1131 
24.7179 43.5889 0 
5.72099 12.1563 0 
16.2641 19.2996 16.2641 
20.7189 24.503 20.7189 
37.6648 45.1988 0 
14.6843 15.4388 14.6843 
17.6982 26.5912 17.6982 
32.6021 34.8099 32.6021 
31.7876 0.0115961 31.7876 
18.1836 13.3589 18.1836 
15.4845 21.5238 15.4845 
15.9919 0.192958 0 
6.65932 46.7366 6.65932 
32.5565 26.3701 0 
19.9872 43.9742 19.9872 
39.4807 42.9491 0 
12.183 15.272 12.183 
13.3266 32.8658 13.3266 
4.29891 18.5501 0 
5.73298 9.07292 5.73298 
32.0511 41.2922 32.0511 
18.1766 23.1102 0 
15.4182 17.7422 15.4182 
32.4783 9.04778 0 
17.8351 47.7601 0 
11.4454 19.0354 11.4454 
6.32049 45.6172 0 
20.6918 4.32329 0 
2.70681 38.8864 0 
25.5208 41.8411 0 
27.383 21.501 27.383 
33.1352 39.6597 0 
19.2207 25.4784 19.2207 
36.5086 18.8625 0 
13.1328 36.8676 13.1328 
19.4673 28.5673 0 
38.4647 0.139538 0 
11.84 26.9258 11.84 
26.2632 2.38853 26.2632 
12.8183 27.2264 0 
29.6796 39.3503 29.6796 
16.6415 33.5313 0 
28.1607 15.8945 0 
8.8562 35.3717 0 
41.3967 4.82251 0 
19.2238 32.3276 19.2238 
22.2073 35.6567 22.2073 
22.272 48.3072 0 
12.0918 6.90381 12.0918 
29.4691 15.1652 0 
7.50655 20.9332 7.50655 
3.48037 35.6606 0 
5.91893 27.7444 5.91893 
19.121 22.891 19.121 
40.7014 6.59588 0 
25.8714 9.4119 0 
27.1285 47.0413 27.1285 
4.68897 27.8559 4.68897 
0.870253 14.5752 0.870253 
32.9908 32.1766 32.9908 
18.4906 32.3777 18.4906 
15.7484 22.5178 15.7484 
24.9548 36.3633 0 
32.5665 39.9859 0 
27.228 34.9446 27.228 
4.45567 25.984 4.45567 
5.49728 40.4845 5.49728 
8.8368 13.5032 0 
1.46429 41.4363 0 
9.22518 36.809 9.22518 
14.0957 28.7797 0 
40.12 43.0892 0 
33.4157 18.3699 0 
24.0961 29.1058 0 
31.6636 12.1494 31.6636 
14.6113 48.9434 14.6113 
27.4742 6.64319 27.4742 
28.1947 47.4742 0 
25.1292 15.61 25.1292 
36.2773 32.7393 0 
9.14197 43.1309 0 
39.4417 32.787 0 
25.9084 30.8518 25.9084 
29.5688 20.2138 29.5688 
27.4208 11.2499 0 
7.50706 6.10866 0 
19.2413 6.94443 19.2413 
18.5576 38.0067 0 
18.9211 19.9298 0 
3.64886 38.2154 3.64886 
35.2607 43.6415 0 
22.0484 11.2862 22.0484 
34.5544 22.1422 0 
11.1198 5.43555 0 
7.78087 34.2389 0 
28.719 10.3819 0 
30.352 39.3963 30.352 
36.7376 5.99798 0 
29.4593 19.154 0 
19.9869 14.0861 19.9869 
26.6147 17.5972 26.6147 
17.4158 26.0609 17.4158 
5.86701 20.2125 0 
9.75234 36.8364 0 
16.6904 27.3966 0 
16.1859 22.3413 16.1859 
19.2244 1.09332 19.2244 
8.17938 43.2911 0 
33.2933 13.5892 33.2933 
9.04357 26.1594 9.04357 
11.6866 48.9689 0 
25.7216 4.55647 25.7216 
2.42392 16.5412 2.42392 
24.7799 38.0272 0 
22.2933 45.5695 22.2933 
25.0834 11.5397 25.0834 
15.5257 41.2241 15.5257 
6.68262 35.693 6.68262 
6.24766 11.2489 6.24766 
13.6071 0.0335246 13.6071 
7.39907 7.386 7.39907 
15.6284 10.4828 15.6284 
18.0978 25.9725 18.0978 
37.862 36.7501 0 
23.5702 4.05603 23.5702 
20.9857 39.9385 20.9857 
14.8958 40.9868 14.8958 
3.27621 30.8662 3.27621 
26.2722 38.7554 26.2722 
12.7461 17.2826 0 
19.123 11.9341 0 
7.64916 42.3016 0 
27.4247 45.6895 0 
31.3694 16.466 31.3694 
31.6007 48.969 0 
20.2057 16.124 0 
0.753786 17.3399 0 
26.6316 39.2819 26.6316 
0.823379 13.9236 0.823379 
26.9974 25.2246 26.9974 
38.7676 13.2876 0 
31.797 9.7746 31.797 
28.0961 0.881931 28.0961 
23.33 15.6089 23.33 
16.7533 17.212 0 
36.0026 9.45203 0 
6.17367 7.11943 0 
38.8859 21.4334 0 
31.8059 11.4806 31.8059 
31.0417 42.2678 31.0417 
24.2427 20.1375 24.2427 
18.7482 6.99641 0 
5.76293 7.71963 0 
27.0125 42.6364 27.0125 
15.1482 4.45272 0 
7.39478 8.57993 7.39478 
11.9193 20.319 0 
23.9484 16.4226 23.9484 
13.826 12.2142 13.826 
8.75192 36.9692 8.75192 
26.1157 8.60581 26.1157 
18.9674 18.365 18.9674 
20.7193 0.0187912 20.7193 
3.98825 43.9756 0 
2.1836 17.2047 2.1836 
34.2135 45.7525 0 
27.1336 6.60456 0 
22.6702 37.3053 0 
31.5109 7.27393 0 
19.9762 47.7092 19.9762 
2.27199 45.7314 2.27199 
29.8513 20.1515 0 
22.4435 26.129 0 
21.5142 39.2512 21.5142 
19.9744 2.55375 0 
25.4164 18.0521 25.4164 
7.23442 28.3675 0 
25.132 21.5348 25.132 
12.1486 31.3753 12.1486 
40.5333 37.3862 0 
33.9518 25.8551 33.9518 
34.7721 41.1605 0 
4.06346 3.51068 4.06346 
41.3146 49.2201 0 
28.619 9.70703 0 
28.6164 25.2814 28.6164 
15.5258 16.0445 15.5258 
17.3112 25.887 0 
31.4533 18.6294 31.4533 
29.2792 8.93473 29.2792 
37.0777 17.5124 0 
2.47144 10.7075 0 
19.0553 34.2976 0 
31.8295 49.8632 0 
16.1683 8.94496 0 
17.8384 33.9613 17.8384 
2.86404 2.71475 0 
11.372 10.3363 11.372 
19.9869 14.8865 19.9869 
41.377 30.6634 0 
39.764 10.047 0 
9.58102 3.88067 9.58102 
4.12917 46.8937 4.12917 
32.4732 15.7655 0 
29.948 12.1034 29.948 
10.4095 33.019 0 
33.9475 25.1936 33.9475 
5.69581 38.8956 0 
27.3928 5.25615 27.3928 
23.6688 10.0778 23.6688 
4.26393 15.1583 4.26393 
8.89802 22.1509 0 
28.2443 42.2397 0 
24.4079 7.16445 24.4079 
1.14432 7.23718 1.14432 
34.1666 46.5173 0 
22.6752 6.12539 0 
5.74724 28.2508 0 
19.0391 37.0156 19.0391 
24.7851 35.6484 0 
0.095386 44.6223 0 
34.7478 5.14809 0 
9.25299 29.4906 9.25299 
23.1166 14.6523 0 
38.0575 33.6955 0 
31.4869 21.7683 31.4869 
7.62672 32.3721 0 
22.0453 42.5791 22.0453 
41.3278 0.755233 0 
29.5872 49.8914 29.5872 
21.4654 1.26213 21.4654 
35.1213 21.8054 0 
9.17807 0.163968 9.17807 
22.2432 36.5765 22.2432 
12.2017 41.1781 0 
19.7375 26.4172 19.7375 
8.58866 34.0937 8.58866 
8.32074 26.9249 8.32074 
20.218 44.9753 0 
9.61236 0.951836 9.61236 
12.6861 25.3845 0 
20.7001 32.7991 20.7001 
5.76333 10.5707 0 
22.9241 46.3421 22.9241 
40.6009 49.8929 0 
0.721391 35.9214 0 
1.70527 13.0025 0 
16.2665 2.0387 16.2665 
15.9884 37.4321 0 
9.02547 6.3187 9.02547 
9.02614 8.71287 0 
4.35091 7.4189 0 
30.4869 43.5067 30.4869 
24.2725 4.60028 24.2725 
31.3663 26.9688 31.3663 
18.7768 40.7765 0 
30.6964 31.9447 30.6964 
19.7473 25.7464 19.7473 
39.0494 38.2252 0 
23.6799 24.6694 23.6799 
7.43822 44.2686 7.43822 
28.8551 43.62 28.8551 
0.97385 2.4983 0 
16.3258 40.6642 16.3258 
10.6945 34.3329 10.6945 
41.4404 1.70473 0 
16.6047 18.7406 16.6047 
1.55861 3.00864 0 
19.9477 34.7095 19.9477 
28.0899 19.7301 0 
23.6868 33.7762 23.6868 
39.9455 48.9511 0 
12.2268 29.6793 12.2268 
15.0587 32.8987 15.0587 
27.8622 19.1306 0 
26.1138 10.004 0 
16.6418 27.2911 16.6418 
21.142 17.0045 21.142 
26.573 24.4188 0 
2.38684 41.2757 0 
21.6158 17.2444 21.6158 
17.0286 10.6016 17.0286 
36.8233 18.181 0 
38.5004 30.593 0 
23.2784 34.217 23.2784 
31.0624 8.05666 31.0624 
24.0626 34.3891 24.0626 
25.9004 0.021866 25.9004 
27.5914 47.217 27.5914 
22.677 1.01233 22.677 
24.9708 20.3231 0 
14.8 20.0394 14.8 
4.79206 30.1654 0 
26.6356 25.07 0 
29.0434 27.2949 0 
23.6819 27.8823 23.6819 
35.3192 40.2094 0 
12.2028 6.07074 12.2028 
11.2243 12.3585 0 
39.9578 6.43913 0 
19.5938 5.81079 0 
19.9704 42.6098 19.9704 
28.3832 39.3896 28.3832 
28.3815 30.4098 0 
14.4688 36.1853 14.4688 
5.61417 26.7486 5.61417 
25.9341 26.905 0 
12.6131 12.807 12.6131 
29.3948 29.7929 29.3948 
2.95994 34.5115 2.95994 
34.727 48.4384 0 
5.81237 24.7943 5.81237 
11.4215 14.1391 11.4215 
15.722 31.4371 15.722 
17.4548 11.0268 17.4548 
33.0435 48.5015 0 
14.0425 7.58638 14.0425 
33.0035 38.9385 0 
29.8719 49.0274 29.8719 
26.6982 37.0392 0 
33.4827 26.1181 0 
19.6186 19.7463 19.6186 
17.659 15.6542 0 
8.11818 4.93645 0 
30.3112 4.92956 0 
22.6338 42.5554 22.6338 
31.468 17.2072 0 
19.9771 8.21327 19.9771 
6.43738 12.1788 0 
14.0955 21.8451 0 
36.6785 23.3794 0 
20.8396 10.4444 0 
29.8311 3.42827 0 
18.3273 46.3029 18.3273 
26.6531 24.6963 26.6531 
28.8337 7.11962 28.8337 
31.2522 4.85659 0 
7.77677 4.19314 0 
26.1343 36.3405 0 
19.1321 48.7061 19.1321 
20.2191 32.8284 0 
20.8667 45.0684 0 
30.3881 18.7039 0 
18.8068 32.8897 0 
15.7881 0.865433 0 
33.9927 18.4047 33.9927 
26.6363 27.279 26.6363 
40.0504 45.0907 0 
38.7461 20.6173 0 
12.6191 26.0923 12.6191 
17.4652 21.5595 0 
3.71342 20.3363 0 
28.8247 18.4246 28.8247 
8.13111 34.8043 0 
28.6113 14.0038 28.6113 
37.7958 33.0503 0 
33.9539 32.5637 33.9539 
14.0643 14.7254 14.0643 
1.73981 30.3805 1.73981 
31.4055 30.7832 31.4055 
23.7209 31.7972 0 
32.1868 37.3567 0 
2.72936 11.9521 2.72936 
7.37007 31.4729 7.37007 
16.7553 49.999 16.7553 
5.9294 43.715 5.9294 
27.5954 16.9096 27.5954 
6.21068 35.6188 6.21068 
11.3435 2.99291 0 
23.2524 42.4877 23.2524 
17.8107 45.2913 0 
14.545 6.58673 14.545 
5.88289 41.4447 5.88289 
6.75203 0.238757 6.75203 
18.4849 48.2263 18.4849 
22.8997 33.397 22.8997 
12.157 12.5497 0 
32.828 32.0517 0 
33.7776 39.75 0 
3.88354 36.5489 0 
39.962 46.7641 0 
10.5889 30.1989 10.5889 
28.0874 48.3484 0 
8.11384 49.2115 0 
12.2493 24.3832 12.2493 
6.65951 4.33423 0 
12.1699 36.3875 12.1699 
14.8892 24.4446 14.8892 
36.272 29.8394 0 
33.3449 40.5074 0 
29.9141 2.77092 29.9141 
17.8988 27.8851 0 
33.3046 29.8322 33.3046 
38.7937 44.9456 0 
4.43896 24.0908 4.43896 
33.2045 10.4643 33.2045 
13.7624 20.2881 13.7624 
40.2094 15.8292 0 
10.9995 42.3501 10.9995 
38.072 27.1174 0 
21.391 31.4897 0 
1.0779 21.9568 0 
5.5325 43.2562 5.5325 
17.8091 44.7275 17.8091 
8.13944 40.3428 8.13944 
21.2531 2.32847 21.2531 
14.0636 16.8247 14.0636 
28.5112 29.7226 0 
22.6672 44.8771 22.6672 
23.8897 31.8468 23.8897 
32.6126 10.9995 0 
13.497 9.62635 0 
21.5267 40.6258 0 
21.372 39.8741 0 
26.0694 37.451 0 
6.78052 31.6183 0 
7.00379 28.1567 7.00379 
9.85885 48.6699 9.85885 
33.2508 40.7722 33.2508 
38.912 36.4967 0 
3.01053 40.6743 0 
29.6041 40.6302 29.6041 
29.6116 27.9286 29.6116 
39.2805 8.36283 0 
12.5911 37.3105 12.5911 
9.3252 9.88757 9.3252 
10.9793 26.9938 10.9793 
8.8146 41.8506 8.8146 
17.5466 42.7646 17.5466 
23.6604 17.2227 0 
29.6927 18.5235 0 
11.8381 17.7134 11.8381 
16.6811 41.2238 16.6811 
8.49919 6.59206 8.49919 
21.1068 44.39 0 
17.0276 0.630778 17.0276 
17.2251 4.04187 17.2251 
11.1678 45.855 11.1678 
27.956 30.907 0 
2.62958 0.0314474 2.62958 
22.6024 3.8461 22.6024 
18.3606 0.165228 18.3606 
20.2149 10.3122 0 
24.4073 40.1653 0 
23.5262 11.695 23.5262 
10.0204 28.4029 0 
12.4966 30.9678 12.4966 
17.2424 33.7508 17.2424 
22.0284 16.491 0 
15.5356 47.4384 15.5356 
4.27972 29.306 0 
33.2674 7.8853 33.2674 
15.8967 26.6475 15.8967 
13.1045 15.1706 0 
19.5936 0.725913 19.5936 
38.8275 0.778681 0 
13.5693 33.4829 13.5693 
9.34796 22.527 9.34796 
30.9264 0.0165313 30.9264 
32.9818 28.9946 0 
12.1952 26.3953 12.1952 
16.9092 31.7197 0 
7.12214 22.2326 0 
32.5941 5.40581 0 
26.1098 4.60064 0 
23.6778 48.1811 23.6778 
33.1438 15.0129 33.1438 
9.84145 17.7234 0 
34.0236 7.24607 0 
33.25 1.78717 33.25 
32.8687 30.0615 32.8687 
12.2018 32.7737 0 
14.9805 45.0452 0 
13.3085 29.0927 13.3085 
3.78359 20.0112 3.78359 
14.5069 32.609 14.5069 
2.84709 25.539 2.84709 
21.461 41.1236 21.461 
2.59602 35.8556 0 
6.65738 49.2887 6.65738 
35.0295 14.7808 0 
1.41688 46.2042 1.41688 
18.2013 35.1204 18.2013 
14.249 49.9426 0 
14.8666 32.9742 0 
24.987 37.7857 24.987 
33.2938 19.4706 33.2938 
11.3049 43.4548 11.3049 
28.6246 27.582 28.6246 
17.8118 8.00064 17.8118 
29.4839 23.5343 0 
30.9173 32.5385 30.9173 
9.84898 28.7262 9.84898 
26.8631 18.0627 0 
15.9782 41.2464 15.9782 
11.6102 36.8268 0 
27.3914 12.4127 27.3914 
9.61939 18.143 9.61939 
22.3162 3.65784 0 
25.1843 47.4414 0 
3.23358 0.207314 3.23358 
14.1105 10.0787 14.1105 
23.4093 43.1972 23.4093 
31.0917 3.89017 31.0917 
17.438 44.2482 17.438 
16.8405 3.46545 0 
21.628 8.71404 0 
11.7221 14.2398 0 
11.6989 31.2686 11.6989 
34.6992 24.8956 0 
25.2771 13.44 0 
5.76098 12.1302 5.76098 
39.4349 1.21864 0 
25.3867 37.4327 25.3867 
32.1529 2.87605 32.1529 
26.613 3.54658 26.613 
30.095 49.7249 30.095 
15.2162 11.0129 15.2162 
41.4615 48.0879 0 
32.5113 49.9418 32.5113 
7.58263 36.6175 0 
13.3113 1.0103 13.3113 
15.9436 35.1035 0 
1.21415 43.4479 1.21415 
16.4629 15.6966 16.4629 
19.7394 44.5522 0 
24.5979 14.2116 24.5979 
2.13763 14.347 2.13763 
28.956 23.9237 0 
6.01687 34.0515 0 
21.9031 28.5976 0 
24.4313 41.3326 24.4313 
18.4996 3.61571 18.4996 
41.2677 43.0172 0 
24.2172 34.1451 0 
14.2761 10.8929 14.2761 
12.5384 45.6733 0 
33.9573 6.93967 33.9573 
4.97825 19.9708 4.97825 
27.3333 47.1049 0 
35.3383 25.0212 0 
28.85 7.25773 0 
21.401 18.1825 21.401 
4.76463 31.3083 0 
3.27386 27.8108 3.27386 
11.5725 24.2469 0 
33.6725 20.7418 0 
24.1597 27.6481 24.1597 
11.8457 16.6159 11.8457 
37.854 20.8853 0 
39.2541 26.6141 0 
7.78083 45.3539 0 
27.3553 9.94089 27.3553 
23.021 20.5499 0 
13.9307 32.7669 13.9307 
28.3408 16.6751 0 
26.2803 48.0708 26.2803 
18.8111 30.3961 0 
22.2003 38.2346 22.2003 
11.6939 0.992029 11.6939 
0.671313 6.49687 0.671313 
20.9872 18.1669 0 
9.20074 6.75928 0 
15.8386 40.3271 0 
15.0724 24.2169 0 
7.43995 31.5454 0 
11.4201 27.1675 11.4201 
18.1115 7.11065 18.1115 
15.6205 4.91021 0 
4.43318 24.7953 0 
4.49521 4.98209 0 
17.3101 7.4137 0 
40.6823 46.7025 0 
0.344207 20.3149 0 
4.89388 10.3641 4.89388 
25.0417 30.6641 0 
8.13256 36.715 8.13256 
36.1637 0.887749 0 
16.8767 36.1962 16.8767 
7.08613 45.5871 0 
24.7575 24.8696 24.7575 
24.1497 12.9064 24.1497 
2.96083 44.3028 2.96083 
7.76136 2.58879 0 
25.1338 1.1273 25.1338 
10.1608 5.29648 10.1608 
5.17881 41.7559 5.17881 
4.28423 16.7716 4.28423 
34.9252 33.9662 0 
4.30774 31.7193 4.30774 
16.2852 6.19663 16.2852 
24.4033 44.7524 24.4033 
27.3634 44.4849 27.3634 
12.6969 46.5461 12.6969 
37.6108 0.239068 0 
3.03094 9.02416 3.03094 
23.9978 28.5112 23.9978 
40.5216 40.3878 0 
33.4488 45.9934 33.4488 
20.1881 0.802645 20.1881 
6.96325 23.6987 0 
0.658871 19.7538 0.658871 
10.2543 0.822467 0 
1.14042 33.8585 0 
32.5671 47.8007 32.5671 
19.9646 36.6249 19.9646 
26.2179 4.0717 26.2179 
15.3309 9.14524 15.3309 
29.6851 25.1296 29.6851 
18.5087 16.1444 0 
22.6967 28.8479 0 
4.08554 32.2839 4.08554 
7.09852 6.04966 7.09852 
28.8374 38.3233 28.8374 
4.56424 17.2495 0 
27.4241 33.1174 0 
33.6225 15.1188 33.6225 
30.6472 41.9959 0 
3.78656 28.7732 0 
2.21423 26.5978 2.21423 
19.9703 5.79329 19.9703 
16.1553 4.30093 16.1553 
1.89521 46.0835 0 
23.151 32.1897 0 
12.2071 25.5357 12.2071 
6.87007 15.1182 0 
37.5431 17.0709 0 
34.6443 35.2435 0 
1.48045 16.4531 1.48045 
10.3609 33.5104 10.3609 
4.44123 11.5343 4.44123 
19.9283 8.89859 19.9283 
17.1936 2.01396 17.1936 
4.37374 9.9831 4.37374 
17.1348 32.846 0 
29.7459 35.0785 29.7459 
10.929 9.51248 0 
21.0396 39.1446 21.0396 
21.1837 4.79684 0 
26.4208 7.74157 0 
20.2569 45.7369 20.2569 
33.578 13.9231 0 
5.70616 35.8344 5.70616 
24.3958 45.3829 0 
14.0461 22.6213 14.0461 
8.54788 45.2928 8.54788 
17.9608 2.15265 0 
31.4324 42.5998 0 
2.85771 9.15706 0 
1.91683 15.0048 1.91683 
24.3608 35.0221 0 
34.0879 6.37938 0 
11.9216 26.3551 0 
25.1601 19.376 25.1601 
31.2359 6.18935 31.2359 
27.0998 29.2638 27.0998 
1.34536 30.917 1.34536 
28.4543 44.4428 0 
9.00321 24.6386 0 
23.0777 6.04923 23.0777 
21.0663 9.71839 21.0663 
25.7244 33.4745 25.7244 
29.0813 16.6799 0 
8.47495 32.7069 8.47495 
12.5752 1.88097 12.5752 
11.7993 47.0117 11.7993 
31.8248 21.2734 31.8248 
17.7033 48.5483 17.7033 
15.1293 33.5979 0 
20.1657 28.3873 0 
13.3257 30.9858 13.3257 
10.7029 45.449 10.7029 
10.5789 49.8118 10.5789 
28.2495 5.31095 28.2495 
23.4238 14.7024 23.4238 
30.0751 4.12964 30.0751 
6.14969 26.75 6.14969 
28.9969 31.7007 0 
0.714337 11.9683 0.714337 
7.86283 0.0256747 7.86283 
33.2535 2.42916 33.2535 
2.48032 22.3254 0 
33.4497 34.5793 0 
33.2656 25.4937 33.2656 
16.4474 5.61093 0 
31.726 37.3468 31.726 
27.9276 19.962 27.9276 
28.7992 3.4485 0 
7.58104 26.2561 0 
14.3717 12.3576 14.3717 
4.2639 46.2589 4.2639 
40.4324 42.4464 0 
35.2738 32.7303 0 
7.63592 42.9309 7.63592 
24.0025 41.7108 24.0025 
7.26101 5.06982 7.26101 
27.3841 19.22 27.3841 
38.6184 22.0398 0 
16.2331 39.7732 0 
8.19295 26.0199 0 
24.355 11.6913 0 
19.6889 29.7806 19.6889 
27.3757 32.6781 27.3757 
25.7295 12.8767 0 
33.7698 3.75931 33.7698 
27.2502 15.1924 27.2502 
28.0449 31.5769 28.0449 
29.9735 22.2112 0 
25.1587 28.3376 25.1587 
8.04763 25.3015 0 
34.6677 11.9483 0 
10.6595 46.2247 10.6595 
24.9905 8.9313 0 
12.4714 24.9938 12.4714 
30.6938 39.335 0 
6.29635 45.1139 6.29635 
28.216 11.799 28.216 
10.3605 7.77843 0 
14.7928 31.7015 14.7928 
28.1417 0.24178 0 
28.8328 32.1611 28.8328 
23.0799 5.21891 0 
5.57716 29.2732 5.57716 
35.0236 32.0475 0 
26.3473 37.0697 26.3473 
9.35668 14.9233 9.35668 
30.3214 33.8465 30.3214 
9.9355 47.7918 9.9355 
24.7452 28.9952 0 
15.2135 30.6836 0 
9.5666 44.8674 0 
12.8151 22.0369 0 
9.79242 8.37702 0 
11.8306 32.0877 11.8306 
4.86747 33.6721 4.86747 
16.7199 1.99679 16.7199 
31.9883 12.7631 31.9883 
31.3857 9.33674 31.3857 
0.33189 30.5908 0 
21.9183 22.2021 0 
12.3316 22.5746 0 
33.9009 22.3814 33.9009 
3.5353 31.9815 0 
21.305 21.9784 0 
34.5538 16.3512 0 
5.44965 32.0273 5.44965 
13.3194 44.7169 0 
14.1717 26.9461 14.1717 
40.9833 32.7659 0 
13.0903 5.9185 0 
37.4106 9.76189 0 
29.8783 46.8802 29.8783 
14.4765 14.1124 14.4765 
1.03764 26.1609 1.03764 
28.7267 17.3454 0 
12.6189 6.3859 0 
23.2148 21.5893 23.2148 
29.417 41.8252 29.417 
22.8282 32.7622 0 
19.9897 10.8051 19.9897 
18.9325 33.0482 18.9325 
9.64647 26.9734 0 
32.1727 44.6306 32.1727 
8.13346 48.9629 8.13346 
26.9498 31.1419 26.9498 
6.03428 2.30657 6.03428 
20.8825 47.9415 0 
2.97911 1.46484 0 
7.80631 37.4205 7.80631 
2.5838 14.9708 2.5838 
31.604 19.2933 31.604 
4.0364 29.9177 0 
38.6085 33.2439 0 
31.6372 10.5465 31.6372 
26.7398 4.3438 0 
12.4275 48.7816 12.4275 
11.093 33.7066 11.093 
15.0885 38.0294 15.0885 
20.3292 34.1701 20.3292 
21.0615 38.8963 0 
25.3259 42.4794 25.3259 
39.3196 21.9884 0 
25.1121 14.6023 0 
10.0168 45.3835 0 
36.1318 19.5308 0 
40.5422 0.126182 0 
0.0199585 33.7136 0 
38.773 43.0679 0 
17.2631 8.40565 17.2631 
24.164 29.5616 24.164 
20.2514 34.6206 0 
19.2343 10.5738 19.2343 
1.37892 23.2707 0 
34.7316 28.5524 0 
5.52679 26.09 0 
2.22078 6.18186 2.22078 
10.2771 23.9971 10.2771 
12.5794 42.6744 12.5794 
13.316 10.7744 13.316 
13.4154 25.3412 0 
32.1156 12.1167 32.1156 
35.0499 39.5227 0 
20.6239 41.1007 20.6239 
29.2128 17.9814 29.2128 
5.11111 11.8831 0 
1.8409 40.0376 0 
26.1164 1.13494 26.1164 
31.7885 48.1812 31.7885 
28.52 21.0513 0 
16.0931 31.4663 0 
38.1345 38.8924 0 
0.450306 48.2925 0.450306 
16.2174 15.1186 16.2174 
30.73 16.755 0 
3.67943 22.1668 3.67943 
26.6113 5.80028 26.6113 
0.70292 36.2211 0.70292 
35.6947 41.7251 0 
27.8047 33.1611 27.8047 
16.1775 47.8525 16.1775 
41.4248 13.5648 0 
4.58844 13.7279 0 
6.02984 10.3173 6.02984 
0.935107 4.96453 0 
33.7873 12.0194 33.7873 
12.7776 49.9898 12.7776 
3.43068 11.469 0 
39.4704 0.00625253 0 
27.963 10.85 0 
28.718 43.7398 0 
20.4546 14.0712 20.4546 
32.3705 31.5678 0 
10.512 16.7606 10.512 
29.8632 39.1647 0 
8.82837 4.96704 0 
6.37805 11.5233 0 
0.00882769 4.93409 0.00882769 
23.8453 16.3008 0 
8.95449 40.9377 8.95449 
31.9779 32.0959 31.9779 
29.2782 32.4402 0 
7.86572 24.7752 7.86572 
29.1386 44.7862 0 
31.0147 27.4323 31.0147 
8.87127 47.9292 8.87127 
33.1056 32.6652 0 
1.82892 46.8424 0 
0.877299 2.94405 0.877299 
8.84921 22.7985 8.84921 
22.9219 44.3191 22.9219 
40.6789 4.64417 0 
7.54783 12.5272 0 
31.9034 7.99088 31.9034 
25.7375 48.3804 25.7375 
27.8176 28.873 27.8176 
17.8725 27.1809 0 
34.4787 49.0415 0 
22.9349 23.6519 22.9349 
18.0834 7.18827 0 
11.7495 15.6657 0 
30.3987 17.5773 30.3987 
17.1147 24.3537 0 
21.4389 25.8636 21.4389 
26.9163 2.189 0 
24.5113 5.23202 24.5113 
5.40616 39.4527 5.40616 
12.5694 28.7672 12.5694 
2.13585 5.2421 0 
34.857 22.7156 0 
32.6172 29.2242 32.6172 
25.1663 32.4365 25.1663 
15.2797 35.2114 15.2797 
18.1718 5.18049 0 
16.6521 22.4738 16.6521 
25.5077 18.8716 25.5077 
16.9018 33.2452 16.9018 
14.7888 28.872 14.7888 
18.2583 49.0629 18.2583 
0.694534 11.1119 0.694534 
32.2022 33.2108 32.2022 
14.6585 2.18349 14.6585 
20.9211 0.775129 0 
12.1176 37.4001 0 
23.3266 47.6085 23.3266 
28.1261 13.6729 28.1261 
18.4876 41.4641 0 
13.059 17.8436 13.059 
10.4922 32.8051 10.4922 
33.3542 7.47319 0 
11.555 38.9767 11.555 
7.42003 9.13677 0 
8.68252 48.6564 8.68252 
40.6795 12.9151 0 
31.1543 24.0325 31.1543 
8.7838 10.0931 0 
28.0597 29.1451 0 
10.1347 43.7158 10.1347 
28.6106 38.9384 0 
14.2634 21.1395 14.2634 
23.7456 25.8484 0 
14.271 40.8367 0 
11.9407 14.8766 0 
22.9015 8.22898 22.9015 
32.8317 47.0836 32.8317 
17.6752 21.4882 17.6752 
8.8817 46.8918 8.8817 
20.0291 40.7446 0 
1.66828 41.4174 1.66828 
29.3099 43.1786 29.3099 
22.2139 1.47696 0 
28.858 6.39332 28.858 
24.3071 14.8818 0 
3.31969 41.878 0 
39.005 14.4925 0 
19.0141 3.76359 19.0141 
6.36115 12.6871 6.36115 
23.051 28.2243 0 
11.1229 0.349899 0 
11.1445 17.617 0 
35.8559 11.2346 0 
25.3512 27.5376 0 
24.6354 13.4101 24.6354 
7.00268 39.128 7.00268 
11.5028 7.95023 11.5028 
15.8428 6.56441 0 
27.164 43.3338 27.164 
10.7774 18.233 0 
29.983 32.267 0 
34.0187 15.9077 0 
15.6364 38.0536 15.6364 
23.6716 37.8793 23.6716 
14.0836 3.15727 0 
11.2354 27.6765 0 
30.0302 9.1369 0 
24.4939 1.08641 0 
31.7802 4.36271 0 
31.4151 8.6098 31.4151 
28.3891 6.11207 28.3891 
39.8682 49.9314 0 
25.8297 8.6897 0 
5.03472 29.3544 0 
25.7207 48.5751 0 
18.4092 42.6767 18.4092 
28.4669 17.9458 0 
33.9731 38.5394 33.9731 
11.8446 43.3845 11.8446 
18.9608 6.34179 18.9608 
12.0641 44.2523 12.0641 
18.4906 38.1394 18.4906 
1.80012 44.3569 1.80012 
34.1493 17.8512 0 
19.4402 45.5641 0 
23.1666 27.411 0 
25.1581 44.0816 25.1581 
31.7939 18.0576 31.7939 
24.1632 45.6694 24.1632 
11.0675 20.7269 0 
21.9493 32.1129 0 
36.5843 14.8095 0 
3.21886 6.4116 0 
27.4277 49.9967 0 
32.9621 24.0578 0 
32.6023 12.0045 32.6023 
8.29244 40.3453 0 
12.7628 33.1261 0 
20.2041 32.7412 20.2041 
4.87379 20.6078 4.87379 
7.65891 24.0345 7.65891 
23.9981 21.9582 23.9981 
7.09783 40.5632 0 
10.1265 34.3189 10.1265 
15.5232 44.3162 15.5232 
27.7359 21.1016 27.7359 
13.0694 10.7555 0 
2.79639 31.0907 2.79639 
27.1077 10.4744 0 
33.3884 45.3095 0 
0.623487 22.7217 0.623487 
14.2771 31.3732 0 
34.5654 39.9426 0 
21.9137 18.6002 0 
0.833696 13.7493 0 
5.58554 1.69918 0 
27.3068 31.6577 27.3068 
8.42947 46.845 8.42947 
15.9595 33.9777 0 
14.2037 29.4944 0 
13.3745 19.6424 13.3745 
17.3642 37.5276 17.3642 
16.2768 23.1241 16.2768 
17.2505 1.23435 17.2505 
23.2723 19.9595 0 
22.9718 13.5039 0 
18.6017 2.14266 0 
19.6436 11.4067 0 
21.4018 11.5596 21.4018 
22.9494 20.2765 22.9494 
28.541 37.4027 28.541 
14.6626 0.0711985 0 
35.2179 16.7475 0 
22.1175 23.8436 22.1175 
6.63257 6.19657 6.63257 
4.47866 27.118 0 
28.5004 31.4656 28.5004 
19.2521 18.3647 0 
33.4527 31.8822 0 
25.746 17.5954 25.746 
11.0204 46.805 0 
4.34417 29.1985 4.34417 
9.13966 1.6535 9.13966 
34.0649 40.4914 0 
5.88539 48.3947 0 
26.567 3.17589 0 
38.9177 3.34781 0 
19.4884 16.4373 0 
6.18642 26.6801 0 
6.29535 48.4222 6.29535 
27.4608 4.14343 0 
3.81623 2.82814 3.81623 
21.807 7.90549 21.807 
15.1217 1.92481 15.1217 
12.6529 40.9641 12.6529 
20.6898 37.2393 0 
2.48979 2.49984 2.48979 
2.16402 33.561 2.16402 
12.504 48.4338 0 
9.77933 9.72878 9.77933 
8.38453 25.0439 8.38453 
8.40338 38.0982 0 
12.4084 46.3787 0 
25.7432 32.603 25.7432 
8.23584 29.1046 0 
26.569 29.859 0 
8.66407 49.9214 8.66407 
24.6974 26.0767 0 
26.6368 15.2127 26.6368 
31.377 28.9263 31.377 
19.0888 6.33813 0 
32.8135 10.3847 0 
36.5293 17.0186 0 
34.0621 33.1232 0 
26.5438 9.05442 26.5438 
17.7473 35.3408 17.7473 
28.4613 0.330428 28.4613 
6.91076 26.5087 0 
19.4261 14.6456 0 
7.78089 40.7787 7.78089 
19.214 9.60511 19.214 
18.7092 14.9028 18.7092 
24.1009 7.67861 24.1009 
14.9923 13.8701 0 
6.96287 47.3177 6.96287 
26.267 25.216 26.267 
24.267 25.2725 24.267 
33.2724 16.7557 33.2724 
0.0206381 41.6694 0 
30.648 1.68979 0 
33.8143 41.2956 33.8143 
18.7566 26.1284 18.7566 
20.5728 35.6559 20.5728 
1.35025 16.8562 0 
25.6956 1.643 0 
15.6433 13.2336 0 
27.6305 16.4767 0 
26.8301 35.1166 0 
36.8633 39.1478 0 
21.7284 7.05064 21.7284 
17.4916 38.2051 17.4916 
2.38978 16.8952 0 
12.4317 40.1321 12.4317 
22.9501 9.63261 22.9501 
8.24084 24.3344 0 
30.5829 35.5146 0 
14.238 8.21546 0 
29.8832 25.179 0 
19.5399 47.2241 0 
26.9876 33.7355 26.9876 
30.5232 19.3707 30.5232 
39.9453 24.5147 0 
20.9888 34.6406 0 
37.6415 5.19466 0 
4.54507 6.73339 0 
6.66276 31.5912 6.66276 
14.4349 4.61997 0 
29.0263 27.9382 0 
10.7468 13.6293 0 
5.91487 3.76848 5.91487 
1.82393 6.75084 0 
14.0638 25.7819 14.0638 
25.5836 10.3757 25.5836 
3.55816 40.29 3.55816 
11.2437 26.1868 0 
31.0691 13.2517 31.0691 
32.7923 25.0426 32.7923 
0.0109677 27.4647 0.0109677 
16 30.5832 16 
19.2411 41.437 0 
26.8644 22.8733 26.8644 
27.5629 42.7693 27.5629 
32.3264 26.7629 32.3264 
35.6077 44.2542 0 
11.7994 46.1109 0 
26.4753 25.8121 26.4753 
4.96947 11.2685 4.96947 
31.783 19.9922 31.783 
8.60511 15.0987 0 
12.4027 10.6518 0 
19.3935 36.4372 19.3935 
8.88661 44.9725 0 
36.52 0.045979 0 
34.4514 20.5521 0 
18.9198 14.1768 0 
22.2039 24.4726 22.2039 
6.48162 27.9667 0 
29.4375 26.7919 0 
0.550432 21.931 0.550432 
38.7779 46.1446 0 
16.8298 40.008 16.8298 
2.95474 38.0505 0 
20.2993 19.1008 0 
28.3257 8.94903 0 
21.4609 10.1117 21.4609 
26.6303 43.9628 26.6303 
5.68038 33.5 0 
1.57511 13.3709 1.57511 
26.9247 29.0141 0 
32.1091 44.8004 0 
28.4605 11.6031 0 
19.0478 42.7072 19.0478 
2.50864 5.68717 2.50864 
33.6181 38.6221 0 
27.0071 6.4123 27.0071 
20.8014 46.0999 20.8014 
32.7142 44.2761 32.7142 
30.4381 18.0175 0 
17.0751 23.3026 17.0751 
19.2386 42.128 19.2386 
14.8315 28.1719 14.8315 
2.50265 40.2128 0 
11.106 15.2368 0 
15.4884 26.7981 0 
29.9538 28.6418 0 
20.539 43.4621 20.539 
6.70142 1.26703 6.70142 
21.0505 43.7996 21.0505 
2.71875 19.8857 2.71875 
29.0786 27.5782 29.0786 
9.58799 33.9498 9.58799 
16.7261 31.869 16.7261 
7.66012 24.068 0 
39.542 7.76925 0 
16.2676 21.788 0 
18.104 24.5445 18.104 
21.1401 6.70303 21.1401 
24.9254 15.2134 0 
22.1943 0.950534 22.1943 
6.43432 21.6413 0 
7.11242 15.7578 0 
16.5438 28.4438 0 
13.5979 34.2665 0 
25.6127 15.9341 25.6127 
28.8386 40.3808 0 
11.4656 36.3425 11.4656 
8.08512 19.0506 0 
1.39009 18.6778 0 
26.8156 20.7827 0 
25.9442 35.148 25.9442 
24.6187 16.1843 0 
2.4943 21.9101 2.4943 
9.17774 18.6764 9.17774 
15.6892 43.4755 15.6892 
17.0941 34.3917 17.0941 
32.0497 13.256 0 
7.12813 33.3815 7.12813 
25.9676 17.9933 0 
20.1004 48.979 20.1004 
2.21976 49.486 2.21976 
8.92633 44.7605 8.92633 
13.6104 36.7221 0 
26.2197 48.7179 26.2197 
31.8045 28.6294 31.8045 
20.4179 38.5189 0 
23.4508 19.3305 0 
27.4819 5.70003 0 
21.0696 17.4184 0 
6.24103 8.27791 0 
24.823 26.5663 24.823 
16.7106 32.3357 0 
1.13445 4.22435 0 
19.6667 46.4736 0 
39.3002 12.6745 0 
15.1528 41.9111 0 
18.7215 0.940877 18.7215 
9.95633 39.5279 0 
26.616 45.5456 0 
27.0862 3.70431 27.0862 
36.8315 25.3759 0 
16.4885 46.646 0 
28.8526 2.26609 0 
4.39609 12.2286 4.39609 
14.4222 3.84907 0 
33.8177 5.21131 33.8177 
29.0706 45.1919 29.0706 
3.84985 41.7043 3.84985 
1.65666 30.5871 0 
9.2198 14.6549 0 
32.7625 41.4631 32.7625 
11.8355 38.2186 11.8355 
34.2879 26.6853 0 
2.21951 18.8156 2.21951 
11.2736 7.62701 0 
7.8895 32.1306 7.8895 
32.5531 14.7051 32.5531 
14.9114 22.0549 0 
3.93458 42.1373 0 
26.1523 15.8537 26.1523 
22.7284 9.22118 0 
15.7817 35.6884 15.7817 
1.29427 0.0236005 0 
11.3456 21.3634 11.3456 
0.69079 9.49357 0.69079 
33.9116 43.9433 0 
1.61458 27.591 0 
27.2739 11.7474 27.2739 
19.2164 25.4427 0 
9.18849 10.7057 9.18849 
4.95497 33.2798 0 
24.9962 1.62129 0 
1.44821 10.8298 0 
14.7148 43.2332 14.7148 
17.5154 7.32685 17.5154 
1.90587 3.80391 1.90587 
28.1263 49.973 0 
31.0926 49.0883 31.0926 
33.6229 18.8762 33.6229 
17.06 18.4233 17.06 
23.2102 43.8106 23.2102 
4.35217 20.2907 4.35217 
39.9779 18.262 0 
18.9883 49.3186 18.9883 
31.6789 45.4303 31.6789 
30.0707 15.4133 30.0707 
7.85923 8.24337 0 
33.5286 48.277 33.5286 
5.25665 17.1547 0 
14.8248 41.2631 0 
18.3242 4.21213 18.3242 
1.32786 3.0795 1.32786 
22.0593 20.1554 22.0593 
30.3206 0.142771 30.3206 
35.8293 43.3371 0 
35.5749 11.9651 0 
16.4152 13.8019 0 
15.541 14.5863 15.541 
6.80121 21.682 6.80121 
29.6947 44.003 0 
8.05641 41.0846 0 
11.7474 29.4202 11.7474 
28.1984 34.7846 0 
26.6185 35.2675 26.6185 
13.1108 28.471 13.1108 
31.2076 49.9982 31.2076 
22.1785 31.0654 22.1785 
8.87798 27.4422 8.87798 
17.0244 49.1856 17.0244 
29.2411 30.5143 29.2411 
4.93854 19.8317 0 
16.9734 45.3907 0 
10.8931 21.6792 10.8931 
25.1661 26.0865 25.1661 
22.0193 28.5636 22.0193 
19.6039 15.7368 0 
31.2026 7.39915 31.2026 
26.6365 11.4074 26.6365 
18.6624 8.58392 0 
7.16489 40.8718 7.16489 
7.71369 4.6929 7.71369 
1.37242 21.3687 0 
9.67917 45.5709 9.67917 
38.5067 47.4424 0 
7.29335 10.5639 0 
7.55394 13.9416 7.55394 
17.1078 48.9504 0 
20.0327 32.0815 20.0327 
0.867804 48.5698 0.867804 
21.0515 23.8799 0 
6.65763 6.58015 0 
16.2788 0.947523 16.2788 
32.5355 2.45839 32.5355 
31.8298 36.1642 31.8298 
22.6513 19.3222 22.6513 
19.7049 17.598 19.7049 
2.96407 47.18 2.96407 
18.4973 22.3756 18.4973 
32.1622 21.7571 32.1622 
21.6475 42.925 0 
23.3794 43.2188 0 
1.93637 16.4236 1.93637 
39.3036 2.80462 0 
12.6704 7.65769 0 
11.3796 22.0569 11.3796 
17.0862 6.06009 0 
32.1263 22.5903 0 
21.3944 46.8522 21.3944 
12.4866 42.5596 0 
13.7219 3.80505 13.7219 
5.18083 37.5465 5.18083 
24.1022 13.7744 24.1022 
30.8758 11.5534 0 
6.65452 11.9612 6.65452 
3.75502 5.01604 0 
31.2939 17.1825 31.2939 
14.2974 31.9909 14.2974 
23.6929 38.6813 0 
21.6141 26.1382 0 
22.2329 44.202 0 
26.9377 1.38087 0 
10.1516 0.784111 10.1516 
30.6592 8.46776 30.6592 
39.3836 42.2651 0 
33.9752 17.6204 33.9752 
19.2799 2.06912 0 
12.1706 1.46621 12.1706 
37.9217 4.60503 0 
14.4259 0.789461 14.4259 
7.00712 9.63204 0 
8.88407 43.1636 8.88407 
19.4205 18.3906 19.4205 
18.0419 22.0119 18.0419 
22.2427 33.6183 0 
12.6732 23.6916 12.6732 
11.8799 18.2527 0 
10.6115 27.9013 10.6115 
9.54301 48.2022 9.54301 
8.19722 32.7249 0 
40.6998 30.3158 0 
31.6372 36.1866 0 
19.1676 42.8387 0 
36.2081 23.8208 0 
35.9625 1.66392 0 
6.44856 44.9346 0 
5.59231 37.8145 0 
2.73115 15.1203 0 
10.2617 13.8346 10.2617 
14.478 44.6367 0 
30.9807 28.2314 30.9807 
36.3278 46.6909 0 
33.8986 29.1902 0 
12.0009 48.4317 12.0009 
21.8508 11.3462 0 
33.985 1.02041 33.985 
17.56 22.125 17.56 
21.7081 15.7148 21.7081 
11.4519 0.933707 0 
3.28481 46.528 0 
19.9826 36.9 0 
4.44669 4.08885 0 
11.8472 3.50323 0 
25.145 14.6966 25.145 
20.7104 28.4903 20.7104 
31.0437 15.797 0 
37.9189 47.7204 0 
16.3111 42.8485 0 
0.0279359 14.8296 0 
3.21261 23.2946 3.21261 
31.0093 36.7433 0 
20.1376 46.4051 20.1376 
13.3127 7.42319 13.3127 
22.6612 31.0925 22.6612 
4.7681 0.706681 0 
7.20797 3.72874 0 
21.197 45.4136 21.197 
20.9751 24.5222 0 
29.3585 49.2031 29.3585 
9.85855 41.1695 9.85855 
24.45 38.5985 0 
0.0341686 16.8167 0 
9.84624 14.2122 9.84624 
16.0143 34.2602 16.0143 
15.5257 0.586241 15.5257 
26.627 16.9434 26.627 
14.0585 36.5659 14.0585 
34.0911 31.3135 0 
5.36414 13.484 0 
20.6503 38.0731 20.6503 
26.3834 49.8649 0 
19.0068 2.68007 0 
18.8605 46.9849 0 
15.7211 44.5621 0 
3.72596 14.6672 3.72596 
18.1044 9.2358 18.1044 
17.049 13.1414 17.049 
14.4486 39.1387 14.4486 
13.2043 35.328 0 
12.376 23.1748 12.376 
19.8134 45.3946 19.8134 
23.9781 39.2607 0 
0.615134 25.3604 0.615134 
26.8865 13.8267 26.8865 
30.0761 0.695793 30.0761 
25.2575 47.1916 25.2575 
20.363 48.0841 20.363 
23.6109 47.7031 0 
13.7379 5.46551 0 
6.18674 32.1381 6.18674 
15.6766 13.9537 15.6766 
24.2688 49.9717 0 
14.0501 35.0406 14.0501 
8.15715 14.0194 8.15715 
30.6707 3.5454 30.6707 
12.5842 16.9072 12.5842 
21.2192 18.7745 21.2192 
16.8504 47.3189 0 
18.0575 30.335 18.0575 
5.78222 21.0108 0 
17.365 17.3656 17.365 
32.5694 13.6548 32.5694 
10.0629 18.3685 0 
15.4095 11.8022 15.4095 
10.9363 6.50693 10.9363 
16.281 42.9774 16.281 
24.8573 44.6189 24.8573 
11.3689 13.3337 11.3689 
8.12283 13.4795 0 
23.5504 37.1301 23.5504 
11.4139 28.8762 11.4139 
17.6267 41.461 0 
3.79679 43.4191 3.79679 
8.88764 19.6052 0 
26.6583 37.6159 26.6583 
20.8371 22.9868 20.8371 
7.37663 16.332 7.37663 
37.8555 22.3893 0 
3.25213 47.1799 0 
29.8821 16.5873 0 
20.9201 13.7865 20.9201 
34.0595 5.66654 0 
27.3783 40.5217 27.3783 
21.9619 26.2631 21.9619 
16.4855 19.9503 16.4855 
29.2365 9.05097 0 
8.40977 11.7013 8.40977 
23.9514 46.7519 0 
27.4701 25.4097 27.4701 
0.244037 47.7159 0 
26.8748 32.9233 26.8748 
9.40002 23.1676 9.40002 
10.392 0.0164866 0 
1.20978 28.1546 0 
32.0992 10.3523 32.0992 
17.5752 0.0470239 0 
6.29295 47.5368 6.29295 
28.0925 2.86862 28.0925 
29.9401 4.28512 0 
19.8157 41.7767 19.8157 
24.8864 38.8297 24.8864 
24.956 18.1431 24.956 
27.5348 16.1708 27.5348 
17.605 11.7573 0 
0.787873 44.9887 0 
2.75298 0.0541913 0 
24.0369 2.15928 24.0369 
1.50297 32.6536 0 
30.7422 12.2389 0 
4.08893 48.8668 4.08893 
28.1027 16.7946 28.1027 
1.05707 0.921005 0 
14.1522 43.312 0 
1.87792 17.3331 0 
4.57208 34.3837 4.57208 
20.1771 15.3951 0 
24.226 5.89167 24.226 
27.3532 32.2885 0 
24.9112 23.3324 24.9112 
37.2092 6.45161 0 
28.5563 37.2205 0 
21.2203 45.6244 0 
