ply
format ascii 1.0
comment VCGLIB generated
element vertex 2046
property float x
property float y
property float z
element face 0
property list uchar int vertex_indices
end_header
5.54384 0.351062 1.6461 
-3.17144 9.45278 0.484364 
6.423 0.00375825 2.31055 
-0.363725 3.39531 -0.0272991 
-9.25267 1.73491 13.7317 
-9.81856 5.53663 11.8115 
11.6564 4.91765 0 
8.04718 1.46901 0 
3.12548 7.55159 0 
3.12515 1.79062 0 
4.47034 3.76807 1.02614 
3.04096 1.98748 0.436838 
-4.7922 6.27764 18.7297 
2.77375 6.43294 0 
11.3834 7.06883 0 
1.67084 9.99987 19.8187 
6.60606 7.74323 17.4632 
-9.76962 4.44481 7.85278 
3.79256 7.40855 0.713899 
10.0382 0.749424 0 
-9.46996 8.28729 13.1683 
-9.16777 1.8869 13.9467 
-0.051296 9.07486 19.9606 
8.84736 1.84747 14.6066 
9.99743 4.12131 9.74737 
-5.16539 3.38435 18.5201 
9.10456 6.75406 14.0934 
-4.04309 6.28969 19.1003 
6.62309 3.40469 2.48182 
-7.06385 3.02339 0 
-9.98327 5.69538 9.52673 
-18.6729 5.01936 0 
7.70385 8.60214 16.3353 
-8.70682 6.3723 5.06425 
-3.11627 9.97922 0.463975 
9.22055 6.61866 6.10989 
6.05528 8.8288 2.01081 
-9.9862 2.495 9.57093 
7.20743 7.82088 3.04438 
9.62968 9.97992 0 
6.85937 4.79108 17.2262 
-6.60294 3.8916 0 
17.5859 8.83798 0 
-10.7268 9.39127 0 
-2.89321 2.89219 19.5263 
9.92505 8.35249 8.77039 
-8.7083 1.51762 5.06689 
-6.30747 7.09533 2.21165 
5.96795 6.70157 17.9781 
-3.51374 9.37939 0.610861 
3.57594 9.3125 0.633844 
7.77214 6.76905 3.68578 
-6.49328 7.16448 0 
4.01823 6.79191 0 
-9.10498 9.93097 5.85132 
-10.1651 4.46772 0 
6.91095 3.32437 2.74127 
-19.9842 5.57036 0 
1.67362 1.90483 19.8183 
16.354 4.99982 0 
-12.2339 3.27035 0 
-4.45669 7.68573 18.9073 
3.34961 1.27112 19.3803 
9.37814 1.36843 6.51369 
-5.09117 1.47578 18.5683 
-5.20016 5.33488 0 
-19.2866 0.626207 0 
-9.93024 4.785 11.056 
4.5268 0.757287 0 
-7.20053 9.49483 0 
8.78911 2.43034 5.21177 
5.33517 2.07923 1.51052 
-7.7159 7.97557 16.3218 
3.32757 0.668204 19.3873 
-6.41606 2.25738 17.6277 
-13.128 1.35583 0 
-6.24196 1.61635 0 
8.31695 0.825152 15.5086 
7.69498 2.3868 16.3452 
-19.9395 0.878735 0 
9.61866 3.26108 7.24479 
-8.38189 4.83869 15.4034 
-4.17181 1.95569 0 
-6.43246 5.12334 2.31864 
-6.06043 3.05402 17.9058 
-9.04754 0.871795 14.2072 
-4.26433 1.80252 19.0072 
0.619162 2.21314 19.9355 
3.22378 8.59536 0.503707 
-9.98888 5.42428 10.1336 
14.7094 8.8721 0 
-8.8581 3.8409 0 
9.48799 0.963791 6.83246 
6.51591 4.5998 17.5476 
5.48714 3.16915 1.60566 
8.2904 3.69116 4.38829 
8.67868 7.25374 14.9227 
7.51514 9.17257 0 
8.16948 2.75253 15.7197 
12.2402 1.15527 0 
-3.7572 4.98107 19.2206 
7.38141 9.9879 0 
8.34361 6.74566 4.4665 
8.75053 0.0162316 14.7998 
-3.30519 9.81743 0.53379 
11.6352 7.1573 0 
10.7429 6.87592 0 
-5.16879 4.47106 1.41281 
-15.0103 4.12764 0 
-15.0088 3.78544 0 
10.7436 8.19062 0 
-18.3151 9.52045 0 
-9.50172 1.52122 0 
5.34759 6.5696 0 
1.32204 2.05071 0 
7.22688 9.09525 3.06427 
-2.60773 4.05912 19.6162 
-8.59473 9.9435 15.0587 
4.14322 9.24427 0.871149 
13.3285 7.55535 0 
-6.34034 2.91901 2.23978 
-9.46636 1.93177 13.1804 
-9.36829 6.6974 0 
-9.34828 6.10597 13.4896 
-9.63536 0.566564 12.6091 
-11.1173 5.71544 0 
3.45443 3.76407 0.588941 
-5.6264 5.09921 1.70497 
7.4866 3.82821 3.33688 
-6.57357 4.80199 17.4936 
-7.35419 4.52056 3.19443 
13.1693 2.03964 0 
9.71474 3.75205 12.326 
9.75873 5.1381 12.1079 
-8.64523 7.71725 4.95383 
-8.12012 8.70092 4.13795 
8.44633 1.82268 0 
-4.16578 8.84856 0.881836 
9.99594 0.00623184 9.81435 
-10.463 5.71024 0 
-7.55739 4.79594 3.42337 
17.2264 4.03054 0 
-8.6879 4.30913 14.9078 
-9.21836 1.48577 13.8186 
-12.8382 1.73006 0 
-0.445833 2.7248 -0.0269888 
8.72233 1.06657 5.09206 
0.0750427 3.0289 0 
8.78018 3.13441 0 
-5.32923 6.15407 18.4139 
-0.16527 6.32985 0 
9.04909 5.93828 0 
6.02182 3.25325 17.936 
11.6241 3.98665 0 
-10.475 1.71765 0 
8.27061 2.95376 15.5837 
-7.37457 9.24683 16.7032 
-0.886891 3.05588 19.9234 
2.91116 4.11751 0.401545 
2.33369 3.6564 0 
2.94734 4.82498 19.509 
-2.83336 7.115 0.38039 
9.97485 1.95364 9.4002 
2.21359 4.99075 19.7048 
9.77831 8.95306 7.88779 
-6.02286 2.74241 17.9352 
11.8556 7.04545 0 
8.82953 1.01742 14.6421 
5.12097 4.05016 1.38473 
-9.63107 4.85141 12.6236 
16.1673 6.49982 0 
9.06561 2.61374 0 
15.9425 7.38697 0 
-7.94941 5.12261 16.0143 
6.1987 8.61858 0 
-3.73131 8.03556 0.69126 
-6.58133 9.53268 2.44607 
-9.79288 9.4069 11.9387 
9.82731 8.77188 8.14432 
6.52534 9.89801 17.5388 
9.98006 0.638436 9.47862 
-8.04272 2.86941 4.02418 
-5.42245 0.587649 1.56177 
9.927 7.2895 0 
-9.01012 0.37825 14.2818 
9.35018 3.0481 13.4848 
3.17225 5.15517 0 
12.3912 7.28034 0 
-15.332 7.19424 0 
6.01265 3.96488 17.9432 
8.53553 3.23307 4.7572 
7.24877 4.59329 3.08665 
5.58799 8.80319 0 
2.58963 5.71337 0.314119 
-17.977 9.69391 0 
8.83126 4.65951 5.28732 
1.74595 7.02114 19.8087 
6.75621 8.36935 0 
9.45892 6.40014 6.74813 
5.74751 5.45814 18.1427 
6.3209 5.52835 2.22314 
9.90387 4.60931 11.2934 
-7.45826 3.86257 0 
8.33339 1.46976 0 
13.3128 7.26299 0 
-8.53145 3.427 4.74988 
9.65028 3.10198 0 
9.71365 8.54031 7.62737 
9.67435 4.37591 7.46909 
-9.96407 8.12379 9.23791 
12.1783 1.84363 0 
0.403896 0.071156 19.945 
-14.9956 8.77834 0 
-3.84331 1.66945 0.732653 
-3.53881 9.62532 0.620122 
-2.91941 9.33948 0.403787 
2.34085 9.87643 19.6762 
19.4171 8.4333 0 
-9.13351 4.91766 14.0335 
7.89594 2.24076 16.0859 
19.2483 8.63658 0 
-15.9634 5.90892 0 
7.44067 8.00451 16.6293 
-0.444113 5.59719 -0.0271413 
2.42527 3.91478 0.269428 
15.3169 0.862439 0 
-8.88711 8.64961 14.5273 
-1.20277 6.9281 0.0401725 
-5.98422 8.83844 17.9654 
-19.2849 2.63321 0 
-2.14493 9.20879 0 
-9.1213 7.52575 14.06 
-16.7191 1.97052 0 
-9.87033 7.90177 8.41989 
-8.33907 5.99683 4.45983 
-9.71413 1.16416 7.62931 
2.30766 7.53012 0.237451 
12.0274 3.16381 0 
2.22487 8.2108 19.7023 
-0.790117 8.5261 0.00355867 
-8.77331 9.54166 5.18344 
4.28382 4.82207 0.937769 
14.1455 2.98118 0 
-9.25123 0.830086 6.17852 
12.8135 6.81753 0 
-19.417 6.6822 0 
-19.59 4.57929 0 
7.04118 9.11495 0 
-8.26269 9.99508 0 
9.63853 6.32534 12.5984 
0.914167 4.13098 19.9197 
4.5333 9.9946 18.8668 
-9.90461 3.2163 8.63945 
-12.5976 8.81005 0 
-18.331 3.12246 0 
19.9211 0.741771 0 
-9.73174 3.27615 0 
3.48409 0.822603 0.599903 
0.39439 9.94234 -0.0272991 
7.85714 8.45426 16.1378 
7.96445 3.76267 0 
16.0414 4.47498 0 
-9.59991 3.99952 12.729 
-9.87454 5.72565 8.44685 
6.74276 1.1487 2.58426 
-9.25045 0.163971 0 
6.77693 3.63843 0 
-9.91278 7.69639 11.2132 
-6.62356 5.12136 0 
9.98601 4.11104 10.2631 
1.94094 9.24727 0.161319 
11.8041 8.03668 0 
-8.15523 4.82603 15.7388 
1.19876 3.42219 0 
4.61805 8.49608 1.09613 
-9.91129 9.41419 8.68226 
-1.91034 2.00207 0 
-18.5727 7.87331 0 
-8.76857 1.75356 5.17494 
9.54774 6.6145 12.9053 
4.08095 4.74312 0 
9.93635 7.71827 8.84278 
4.41087 8.06465 0 
6.36175 3.40131 0 
-9.98897 6.33106 10.1295 
3.77713 2.9649 0.708194 
9.88301 0.905573 11.4812 
7.37051 1.36404 0 
-18.2522 0.840111 0 
15.4654 5.35366 0 
9.0249 1.82444 5.67218 
-5.46903 5.17339 0 
14.7398 5.48663 0 
-5.11998 8.73879 1.38415 
-8.96528 2.80847 5.53879 
-9.56737 5.40359 0 
-1.60829 4.75796 19.827 
-7.92412 9.22087 16.0482 
-1.26067 9.33591 19.8735 
6.93973 8.40341 17.151 
-19.9184 4.87058 0 
-19.1457 5.90031 0 
-6.46449 3.16569 0 
14.6692 3.22323 0 
-6.30469 6.31869 17.7148 
-8.11438 8.22321 4.12952 
-13.9026 2.44655 0 
5.40173 3.8987 18.3669 
0.693519 1.62278 0 
6.65822 0.532108 2.51189 
-3.08533 9.9517 0 
6.59847 5.06247 17.4703 
12.9439 7.10576 0 
9.46789 4.00774 13.1753 
-8.78722 7.71434 14.7266 
-4.85193 6.59408 1.22674 
7.19386 3.84809 16.905 
-5.08124 3.50879 1.3614 
-6.35786 1.3775 0 
3.43468 8.15183 0 
9.51082 3.77583 13.0301 
9.64386 1.78479 12.5804 
9.98408 9.61977 10.3506 
5.92516 5.34454 1.91802 
-9.94929 1.17883 9.01561 
5.72161 7.27438 18.1595 
-9.9816 1.04719 10.4625 
-9.63669 2.79516 7.31738 
-1.11222 3.19998 19.8933 
7.61528 4.21674 0 
-4.85438 4.53293 0 
3.22313 4.60049 19.4208 
1.86581 2.15002 0.147881 
-9.98921 9.99117 10.1188 
-9.11567 4.26397 5.87525 
-6.1055 7.44905 2.04662 
-19.1027 6.70748 0 
9.74236 5.98938 12.1891 
-7.97161 8.84189 3.92952 
9.92286 6.56401 8.75639 
-12.1625 8.86062 0 
9.9445 3.84206 10.9276 
6.93543 3.08082 2.7663 
9.39249 2.82524 13.3776 
3.32728 4.71685 0.541954 
11.8528 8.81057 0 
9.91707 5.41168 11.1745 
-14.6542 6.65617 0 
-5.9652 4.20161 1.94657 
-2.14933 6.3296 19.7193 
18.4092 6.52201 0 
9.78878 5.02402 0 
8.16311 4.43225 15.7282 
-9.82515 1.9775 8.13048 
-15.7287 3.368 0 
8.99446 3.63858 14.3131 
-8.58173 6.33387 15.0798 
12.0604 7.97641 0 
5.98163 0.0863385 17.9675 
8.85249 3.95656 14.5963 
5.9546 2.00565 1.93901 
-9.10634 7.16634 5.85437 
-9.64987 9.55618 0 
0.0695998 4.54623 -0.0272992 
5.96894 8.26919 0 
-3.40117 7.66508 19.3638 
-4.87284 6.705 0 
-9.93846 6.57768 8.85626 
-9.93948 8.41327 10.9728 
-5.97189 2.80186 0 
-13.8493 2.19679 0 
8.9992 3.32923 5.61469 
-0.863218 9.99024 0 
-5.84957 4.71698 0 
-8.36853 6.94891 4.50314 
9.57805 1.17872 7.09381 
7.28517 8.03942 3.12386 
16.1141 4.20469 0 
-14.0404 5.6752 0 
5.62798 2.20459 18.2202 
-9.108 1.43324 5.85808 
0.422339 5.90437 19.9442 
9.98099 6.75935 10.4901 
-9.98742 9.19333 10.1997 
-4.02569 8.55155 19.1076 
4.59976 0.297256 18.8316 
-15.9165 2.01667 0 
-9.98708 1.10985 10.2151 
-4.51835 1.54587 1.04889 
-0.447325 1.37627 19.9431 
9.97832 5.88238 10.611 
5.11705 0.26117 18.5515 
7.65578 5.98206 3.5436 
7.71449 4.22337 3.61534 
-5.67012 0.00424564 0 
18.6771 6.27112 0 
1.42606 5.03215 19.8514 
2.39063 3.2365 0.26001 
-1.89714 0.482668 0.153484 
5.1336 4.30094 1.39215 
-18.9051 9.66278 0 
-5.16532 3.7443 1.41077 
4.3911 4.00501 0 
-16.6185 6.74462 0 
-0.663446 0.708783 19.9335 
-6.63369 1.60173 2.49089 
8.19394 1.34441 4.24649 
-3.78462 0.601231 19.209 
-14.4642 4.36122 0 
-3.97912 0.41814 0.793393 
-7.71326 9.08235 16.3248 
11.5645 7.92312 0 
-4.42702 0.0671357 1.00562 
-1.80589 1.50063 0 
0.258548 3.934 19.9515 
-8.52756 2.03871 15.1675 
-15.8425 7.20177 0 
-8.06873 5.26847 0 
-6.01411 1.33611 17.942 
-9.98838 3.73554 10.1563 
-9.39561 1.36813 6.5644 
-8.7429 4.83158 14.815 
-14.8874 3.29697 0 
-15.4776 6.78761 0 
-6.64094 7.17709 17.4306 
-0.269926 9.94923 19.951 
4.03455 3.16462 0.819662 
-7.11313 5.67705 16.9888 
-2.98574 2.64808 19.4967 
7.39203 0.61216 16.6836 
9.71015 0.596741 7.61328 
-8.56394 6.03002 0 
-12.6024 1.90568 0 
-16.0969 3.11877 0 
-7.46998 7.81152 0 
-7.41025 8.41794 0 
-3.1459 2.96838 0.474925 
8.3667 0.11077 4.50045 
-17.6406 2.40047 0 
9.65208 6.18055 7.37937 
-7.39222 6.75105 16.6834 
-9.69019 3.48235 7.53288 
19.0184 4.30734 0 
9.39786 5.00109 6.57093 
-9.826 4.57564 8.13593 
-16.2288 9.11088 0 
-6.53771 5.83029 0 
5.38041 9.95504 1.53708 
8.79888 0.367831 14.7033 
-11.6386 6.34743 0 
-4.87054 3.6886 18.6883 
5.32797 1.67682 0 
2.37713 2.77276 19.668 
3.05562 2.5381 0.441562 
9.95155 1.80054 0 
-3.34838 8.4854 0.549752 
6.59073 5.11512 0 
7.74078 5.26491 16.2936 
9.00961 5.42667 5.63797 
-7.84927 7.86643 3.78003 
-14.5876 7.93422 0 
-8.95303 9.82175 5.51139 
-13.29 9.03308 0 
11.1904 6.60304 0 
-7.43585 3.76012 16.6347 
-8.12959 4.88017 4.15188 
-2.63473 9.46568 0.326383 
9.69664 5.83521 12.402 
-2.0524 1.80883 19.7411 
8.52372 2.84434 15.1737 
-5.75708 3.70779 1.79816 
5.64866 7.96949 1.72085 
6.93874 2.10208 2.76968 
7.14496 0.904213 2.98052 
-9.66748 8.21999 12.5005 
-5.15298 0.65559 1.40353 
-4.80082 9.14679 18.7252 
-7.31725 8.1092 3.15665 
17.1506 5.16686 0 
8.38168 8.07014 15.4038 
-8.81797 1.04775 14.6652 
3.71333 2.33058 19.239 
-7.14275 3.2705 0 
10.8502 5.89566 0 
0.805339 3.86446 19.9273 
4.19655 2.51912 0 
0.34751 8.49069 19.9475 
-3.45026 3.61518 0.5874 
2.40694 4.50626 19.6613 
4.0131 2.83332 19.1129 
-5.44567 5.29682 1.57609 
9.38717 8.17185 13.3911 
7.59062 1.11795 0 
17.4648 1.66085 0 
8.79941 7.00799 0 
7.43786 1.01104 3.27997 
-15.7726 9.56069 0 
-9.87054 8.1483 0 
-8.25791 5.81881 15.6013 
-19.9318 8.85399 0 
-2.34329 9.32019 19.6757 
9.90872 6.03607 8.66581 
-7.79956 1.14747 0 
9.36653 6.48666 6.48002 
2.92752 7.13831 19.5154 
6.24036 8.38844 17.7651 
-9.88579 2.09798 0 
7.47287 7.71075 16.5933 
-10.4794 6.06818 0 
-9.1222 9.34482 14.0582 
11.2726 0.0717005 0 
7.56122 3.44001 16.4946 
-9.51885 1.57239 13.003 
19.3262 1.43908 0 
-19.1517 6.44233 0 
17.1158 0.322294 0 
13.862 3.11678 0 
-9.85133 9.08974 11.6491 
-6.99281 2.77651 0 
6.92916 9.13579 2.75989 
-6.53567 6.49245 2.40698 
8.98636 5.27417 0 
6.11792 6.62465 2.05548 
-9.1596 5.48044 13.9674 
-8.37934 3.25343 4.51903 
4.0923 2.71033 0.847022 
-7.53874 0.866689 3.40058 
-5.55339 9.69127 1.6529 
-3.07278 9.04919 19.4689 
-9.98559 6.9178 0 
8.69598 2.30867 14.8947 
9.77131 6.09585 7.8596 
9.05049 0.00467539 14.2013 
-3.24365 3.27835 19.4142 
-3.14364 7.57181 19.4462 
6.74056 8.88615 2.58237 
-9.36378 4.26406 6.47202 
-1.66646 7.45655 19.8193 
3.33562 8.01876 0.545036 
-8.92528 0.0607404 0 
-14.7756 4.20227 0 
18.125 4.64704 0 
0.120502 6.13732 19.9576 
-9.98361 2.18683 10.372 
-6.01589 6.18865 1.98272 
-5.98135 4.47886 0 
8.8182 8.89558 5.26391 
-1.79525 3.4725 0 
3.7515 4.45976 0 
9.66186 0.799651 7.41876 
9.35876 9.78821 13.4631 
-0.120136 3.29892 0 
-9.50755 0.0024128 6.88924 
-10.2733 8.27765 0 
-18.0429 7.20547 0 
-11.9459 4.09327 0 
-6.26705 5.84576 0 
9.49067 1.22703 6.84025 
8.38388 6.97946 4.5257 
7.099 3.23203 2.93353 
6.0105 3.523 17.9449 
6.70089 8.81157 17.3745 
5.79902 3.91324 0 
-8.3516 3.64148 4.47825 
8.60563 0.345126 4.88286 
9.90685 5.66072 8.65384 
3.03918 7.98246 19.4796 
15.1323 4.37008 0 
14.3483 6.46823 0 
15.2535 8.79314 0 
9.92887 9.13557 11.0683 
-8.72745 7.9347 5.10123 
2.56007 8.53658 19.6269 
-18.8007 6.42283 0 
-3.68593 9.45125 0 
9.09918 7.00005 14.1041 
6.56394 4.59176 0 
9.14129 1.3214 5.93256 
7.93343 7.30149 3.88288 
0.9632 9.67415 19.9132 
4.80638 8.0325 18.7222 
3.21426 4.22919 19.4236 
2.86382 4.74485 0.388673 
15.3996 8.99123 0 
-3.98635 4.53198 19.1241 
11.2663 2.4438 0 
-9.109 8.32697 5.86032 
9.61899 6.64245 7.24609 
-17.196 9.46759 0 
-8.25177 8.05411 15.6096 
8.30272 6.70452 15.5317 
-9.98808 3.13689 10.1697 
9.98767 5.38474 9.59307 
-8.35713 9.42646 0 
8.28079 5.42022 15.5672 
-9.7308 0.277966 12.2464 
-9.1169 2.48943 5.878 
-5.29714 9.99847 1.48818 
-4.8379 9.8399 0 
-19.8332 4.56914 0 
-8.29385 4.87619 4.39336 
-8.52899 2.51704 4.74546 
-1.42658 2.11773 19.8513 
-16.5869 3.78349 0 
9.92291 3.39516 8.75672 
-4.24545 9.99624 0 
-0.229577 6.63076 -0.0272991 
0.543266 8.86235 0 
18.7786 2.60326 0 
-4.9176 8.44284 1.26531 
6.17552 3.05547 17.8158 
3.93492 1.42813 0 
9.91761 4.217 8.72275 
-8.53501 9.10712 15.1554 
3.31455 3.12622 0 
11.0974 9.9653 0 
-16.0353 2.75527 0 
9.56283 6.36795 12.8543 
-15.8537 7.96084 0 
8.21847 8.14827 15.6541 
7.22168 9.44668 3.05895 
-2.94385 6.857 19.5101 
1.01578 1.55524 19.9062 
-0.416332 6.64677 19.9445 
0.109514 0.530368 19.9581 
5.80836 3.11876 18.103 
0.726068 1.98039 19.9308 
-18.5231 9.01942 0 
5.13664 1.38373 18.5388 
6.34383 2.02804 2.24278 
6.90945 5.59135 2.73974 
6.84812 9.42084 2.67703 
-7.68574 1.80052 3.5802 
-9.65784 7.04359 7.40259 
9.67933 6.55383 12.4605 
7.73257 8.15107 16.3032 
-11.807 5.34558 0 
-7.63321 5.01238 3.51601 
-11.1336 1.3114 0 
9.62685 0.0427419 12.6379 
-6.53278 1.20587 17.5318 
-8.47707 8.34522 15.2493 
-5.37207 8.16182 18.3861 
9.08591 4.42621 0 
3.42465 5.208 0 
9.47658 1.10298 13.1459 
0.463487 9.27758 -0.0254222 
3.30137 7.33072 0 
2.04912 3.94303 0.180667 
9.60497 8.08651 0 
-9.86734 4.87869 11.5697 
4.39748 8.79382 0.99162 
9.78921 3.13732 11.9569 
9.77495 5.43092 12.0276 
9.97495 2.65594 10.6534 
-8.82168 3.35012 14.6578 
3.71786 6.18393 0 
-9.44625 1.59854 13.2415 
12.0176 0.992123 0 
5.10648 2.25142 18.5583 
8.7855 5.76082 5.2053 
4.25842 5.44941 19.0097 
6.93641 4.5106 2.76729 
8.47776 2.82001 4.66372 
11.6103 0.0656748 0 
-7.81762 7.78889 16.1907 
-8.6057 2.72548 15.0409 
-3.86903 3.49333 0.742154 
1.64852 8.30143 19.8217 
-0.157345 4.45227 0 
-9.97984 9.05838 10.5423 
-6.01549 0.0601268 1.98243 
9.7898 6.72223 7.93408 
-1.65319 9.00677 0 
-12.2651 9.97845 0 
6.30857 2.84604 17.7118 
-19.2546 8.77674 0 
-1.53218 8.27112 0.0882054 
-9.39879 1.01556 6.57363 
9.35227 1.21845 13.4795 
9.87871 3.99063 8.47358 
9.96659 8.3453 9.27595 
6.99851 3.5654 2.83079 
-4.65685 7.59216 0 
-5.96494 6.27332 17.9805 
12.3915 8.61217 0 
-9.36107 3.93705 13.4572 
-5.14259 0.923116 18.5349 
-1.16732 4.20721 19.8859 
-9.96296 1.73229 9.22129 
-0.163091 5.96533 19.9557 
-3.28312 7.15113 0 
5.45986 9.56295 1.58621 
5.21739 0.0182713 0 
-6.7865 2.4608 17.2944 
-3.47943 6.19021 19.3374 
4.68201 6.79613 0 
9.88598 8.16117 8.52017 
3.95256 5.96811 0.780811 
-6.29435 1.24025 17.7229 
2.32545 1.14183 0.242288 
-2.89821 0.961696 19.5247 
11.8547 2.83121 0 
7.37896 0.169877 3.21975 
-9.76622 6.27265 0 
2.91378 3.00471 19.5198 
3.73359 2.20401 0.692106 
14.9466 3.18924 0 
7.26025 3.33983 3.09838 
-9.55934 4.67616 12.8661 
-1.02691 4.74303 0.0245682 
9.83485 6.10002 11.7307 
-8.82985 1.50237 5.28478 
-9.64412 6.94121 12.5795 
9.46897 9.79586 13.1716 
-4.60581 3.58299 18.8284 
-9.93992 1.54897 10.9689 
5.24058 2.86337 0 
3.40397 2.33125 0 
9.88465 3.49086 8.5116 
-2.34837 7.14192 0.24852 
7.95442 1.39037 16.0076 
-5.17015 8.65431 18.5171 
-1.34363 3.29454 19.8624 
-9.34996 4.57971 6.43192 
-15.7482 2.51406 0 
8.81748 0.776072 5.26262 
-9.67981 1.38846 7.49105 
-19.4871 7.54753 0 
-19.9435 5.28462 0 
6.62454 7.42899 2.48306 
-9.90674 0.720475 8.65309 
-14.0903 5.93207 0 
9.36544 8.54073 13.4462 
9.93563 3.98423 8.83818 
-8.52613 4.74285 15.1698 
-0.215345 4.61193 19.9534 
0.628269 3.88936 0 
-18.0147 1.07884 0 
-18.4968 0.366083 0 
-9.87294 7.1271 8.4366 
5.23728 7.31833 0 
7.38529 8.96524 3.22622 
16.4956 7.15973 0 
-5.76027 8.97886 18.1345 
-4.50451 1.7949 18.882 
0.895797 1.11606 0.0129355 
12.0154 7.64735 0 
-4.93312 3.24688 0 
-6.1982 0.0176969 17.7981 
10.7597 1.81721 0 
-9.52883 8.09206 6.95097 
9.00041 0.0856793 5.6174 
8.63976 1.43842 14.9858 
-8.40468 3.99749 15.3665 
-9.67812 2.33513 0 
-6.06514 1.80543 0 
2.70808 6.89391 0 
10.2109 7.48681 0 
-0.994421 8.11906 0.021686 
-3.13319 5.67911 19.4495 
6.78154 4.65721 2.61745 
-9.33339 9.69425 13.5273 
10.1836 0.0273028 0 
9.93293 6.70552 11.0318 
7.72272 1.49553 3.62539 
-8.53818 3.62796 15.1503 
9.98346 3.58821 9.52974 
-9.74024 1.0738 0 
-10.2507 2.98999 0 
4.86399 5.17212 1.23383 
8.41962 1.0204 15.3423 
6.87406 0.411333 2.70356 
-3.10753 6.62146 19.4577 
12.2191 6.24591 0 
9.35851 0.177455 6.45672 
10.016 5.11401 0 
3.31637 3.77184 0 
-19.4719 8.55456 0 
1.20465 6.11338 0.0403394 
5.53308 2.88944 18.2818 
-6.85667 7.32264 2.68577 
9.23329 4.80285 6.13837 
9.55827 6.97635 12.8697 
-7.01992 3.48189 0 
-3.85314 5.8968 0 
-7.34646 4.54866 16.7346 
7.94149 6.08301 0 
5.4571 0.0593209 18.331 
-6.32892 0.0383121 2.23001 
-1.66792 2.09908 0 
4.13064 3.45013 19.0634 
-8.8177 8.6168 0 
7.79494 7.75048 3.71365 
5.12054 4.53569 18.5492 
15.6736 7.40472 0 
-6.42908 1.00323 17.6175 
-9.50311 9.15245 13.0562 
-5.44061 8.4996 0 
9.63272 6.73917 12.618 
4.87844 4.91036 18.6841 
9.01759 4.89893 14.2669 
9.7848 2.67469 7.91393 
-9.63372 3.70861 7.30544 
7.22911 4.10572 16.8657 
9.46302 2.22327 13.1917 
-4.7022 1.67204 18.7774 
-15.5619 7.02715 0 
16.9582 7.05127 0 
-2.35072 4.5089 0.249157 
5.84298 3.7823 18.0759 
-13.3825 3.87233 0 
-4.60417 8.71009 1.08955 
-5.11774 6.24479 18.551 
-8.19092 0.0591964 4.24203 
-4.0116 7.98545 19.1135 
6.01259 5.86667 17.9432 
10.5107 0.413389 0 
5.72544 6.35519 18.157 
-0.656961 1.14585 19.9338 
7.69055 7.02611 16.3501 
-9.86976 8.54189 11.5577 
9.98388 1.28947 10.3593 
-15.251 8.73477 0 
-9.81456 9.99796 11.8313 
-2.67869 4.31982 0.338336 
-8.23123 3.27072 15.6371 
4.04181 3.68193 0 
12.8756 4.5875 0 
9.92 0.969925 11.1482 
-2.32721 7.42175 19.6793 
14.1504 6.96167 0 
6.39105 8.11146 17.6473 
-16.9613 2.34963 0 
-7.407 9.98732 16.6669 
5.59304 3.9894 1.68118 
8.73565 8.63709 14.8295 
-2.59739 9.41964 19.6185 
5.1386 7.74912 18.5375 
15.7001 7.77591 0 
9.35635 7.61411 13.4692 
4.9027 9.1041 18.6713 
5.20916 4.57378 1.43652 
-4.56314 9.56488 1.07011 
-2.79915 3.57815 0 
7.9688 7.20452 15.9884 
7.28088 3.07394 3.11948 
3.31965 8.33634 0.539134 
13.2487 9.18529 0 
7.12933 1.45458 0 
8.37984 7.60357 15.4068 
-9.96195 9.65416 9.20607 
3.20123 0.132894 19.4278 
9.51082 4.40211 13.0301 
-7.38995 6.29404 16.686 
-5.57691 8.85979 18.2533 
6.38072 7.00783 17.6553 
-9.77986 7.59397 7.89402 
-9.24813 5.277 13.7432 
4.85863 7.33502 1.23068 
3.2567 7.41629 19.41 
-8.90094 6.93062 14.4997 
-13.8866 1.9465 0 
8.67811 6.56345 14.9236 
4.62279 7.3811 1.09838 
-9.3167 7.66924 6.3354 
-14.9959 5.20982 0 
-5.48591 1.39552 1.60479 
-9.66946 4.35282 12.4939 
-3.44083 8.23723 0.583916 
-7.20371 2.35496 16.894 
-6.75899 0.869853 2.59815 
14.9769 6.37219 0 
6.77924 7.58178 2.61549 
1.74359 6.85956 0.126019 
9.79063 4.64373 7.93742 
5.8967 9.45918 1.89772 
16.2645 0.080117 0 
-6.23007 3.19149 2.1454 
9.91994 4.0015 11.1487 
1.0514 5.92004 0.0267419 
1.55395 0.0316959 0 
8.34477 3.15392 15.4636 
1.7507 6.11709 0.127291 
9.94479 5.6192 8.94787 
4.05293 9.6473 0.828367 
-11.206 3.08633 0 
-9.55548 8.78125 0 
5.1955 5.14844 18.5006 
19.6504 1.29165 0 
-6.69871 6.45713 17.3765 
-8.29529 7.72973 4.39547 
-4.40594 5.03308 0 
4.11991 7.05426 0 
9.65821 8.78218 12.5319 
7.96767 1.10117 15.9899 
7.35022 8.93829 0 
-7.43019 1.66399 3.27213 
-2.0878 0.0237 0.187585 
-4.36947 5.10308 0.978348 
9.47744 3.425 13.143 
-4.64965 8.99289 1.1111 
5.74395 6.85186 18.145 
6.77329 0.118499 17.3068 
0.219741 6.09456 0 
-6.82678 8.49731 2.65617 
7.61829 3.61156 3.49778 
3.17256 2.75306 0.484777 
12.3704 8.88452 0 
8.80692 0.650467 14.6873 
-8.14806 1.99809 0 
8.1446 9.16853 15.753 
-15.5156 4.31539 0 
-9.36019 5.38104 6.46161 
-9.93655 6.93561 10.9991 
9.77121 8.26354 0 
3.60486 4.64144 0.644535 
8.50015 8.44765 4.69663 
2.94382 9.98826 0.410426 
-12.4689 2.40712 0 
9.59982 1.81114 0 
-7.02386 6.27576 2.85671 
4.86303 9.55845 0 
-7.74166 6.48396 3.64854 
9.16834 3.70881 5.99308 
6.30188 3.50952 2.20686 
-7.66218 9.11049 3.55141 
5.56265 2.11797 1.65951 
2.27487 1.54138 19.691 
-3.01095 4.70588 19.4887 
-3.0588 3.44691 0 
-3.26976 7.93799 19.4058 
-14.3863 1.52466 0 
-6.61962 6.71886 2.47885 
9.88367 6.44777 0 
5.14068 4.89795 0 
-9.22515 4.25445 6.12017 
6.47044 6.06844 0 
9.50422 0.0477514 13.0525 
3.1773 7.04315 19.4354 
3.11964 0.473662 0.46522 
7.77526 9.42773 0 
2.53144 8.84928 19.6333 
-10.136 5.87143 0 
-0.457273 2.0902 -0.0259737 
3.25658 6.72703 19.41 
-11.0303 7.74535 0 
-8.04351 0.0314863 15.8883 
9.58406 3.39646 12.7825 
8.96904 8.06702 5.54722 
-5.96186 7.81714 17.9829 
-7.72493 4.3448 0 
-10.5025 6.59691 0 
-4.04415 2.55344 0.82421 
4.27803 9.99714 0.935022 
-6.62152 0.631088 2.48047 
-9.69919 1.32592 0 
7.64068 2.21722 0 
-6.42717 4.61109 17.619 
8.8683 1.31652 14.5648 
4.81837 1.28167 0 
14.8944 9.67874 0 
-5.71265 9.51375 1.76647 
-10.8976 2.32658 0 
14.9287 3.43094 0 
-3.25886 1.34471 0.51667 
18.9566 0.0967002 0 
-5.90228 2.44201 1.90171 
-5.99396 3.077 1.96708 
-0.159862 8.7489 0 
9.57239 2.82227 7.0774 
-19.9648 2.68601 0 
-4.41546 1.82612 0 
-5.13722 9.85162 18.5384 
-7.09673 6.18573 17.0041 
2.40892 0.570165 0.264983 
9.97989 1.48196 10.5401 
9.96749 4.51632 9.28937 
-5.99341 8.00102 1.96668 
9.89524 1.11279 8.57947 
9.9496 2.11291 10.8817 
-9.58861 4.31917 12.7672 
-19.5174 9.69203 0 
-9.97909 0.564559 10.5763 
6.92861 1.72891 17.1614 
-5.73615 3.52415 0 
9.35693 9.26033 13.4677 
9.68354 1.69008 7.5061 
8.13483 9.56002 4.15958 
-7.45203 4.83156 16.6166 
-16.7751 7.22581 0 
-4.38986 2.32145 18.9427 
-1.47985 0.981779 0 
9.13051 9.60289 5.90846 
-9.08139 6.50886 14.1396 
-11.785 9.99384 0 
9.90488 2.47612 11.2842 
11.3283 7.81355 0 
9.8616 7.19686 8.364 
-6.61746 4.54845 17.4526 
5.76294 9.13396 18.1327 
5.13482 1.03715 18.54 
-9.93496 6.38209 11.0134 
17.2058 6.75012 0 
9.38958 6.72548 6.54689 
-11.6359 1.77226 0 
-5.14979 6.79633 18.5303 
5.61435 5.81964 1.69638 
11.082 5.77226 0 
-9.88705 3.56753 11.4449 
-6.52032 4.75163 2.39384 
-6.60076 9.36557 17.4682 
4.84337 5.61138 1.22172 
9.93289 9.4086 11.0321 
-8.04301 9.417 15.889 
-2.75047 2.87432 0 
-9.7885 3.96375 11.9604 
6.32888 0.00857416 0 
-0.120568 7.17682 0 
-4.76368 6.45094 0 
-8.74046 7.45113 14.8199 
-5.18437 6.56879 0 
19.3509 2.61772 0 
9.69315 5.19375 7.5448 
9.93411 0.0520438 8.82844 
-6.37005 6.12071 0 
19.7142 4.44115 0 
-8.939 6.08206 14.4237 
-7.55219 5.27224 16.5047 
3.72636 9.98997 0 
4.87524 4.86942 1.24043 
1.61643 3.74784 0 
6.6707 6.46349 17.4028 
9.07961 1.16183 14.1432 
-6.81681 0.812932 17.266 
-8.33184 7.45018 4.4492 
-4.44812 4.54129 18.9118 
-9.95444 1.33453 0 
-9.01786 7.50991 5.65643 
16.8564 9.96301 0 
2.52744 1.34753 0.29721 
-9.63669 5.50893 7.31737 
-7.4627 5.66462 3.30766 
7.87033 1.27179 3.80577 
-4.91532 9.55194 1.26397 
14.4333 8.52568 0 
4.71187 2.09729 1.1445 
6.68587 0.976432 0 
-2.01331 3.95243 19.7499 
19.5974 8.66618 0 
-9.4382 2.36272 13.2619 
-8.91282 3.31705 5.43352 
-3.29167 8.18921 19.3988 
-9.98265 3.76511 10.4153 
3.35826 0.0640345 0.553405 
-2.18883 6.08286 19.7104 
1.31753 3.08427 0 
-14.7508 5.4296 0 
16.0792 0.321224 0 
-9.94005 2.72483 8.87655 
5.53633 2.77403 0 
0.921495 4.0196 0.0152157 
-8.13419 4.26495 4.15865 
5.16858 5.64161 1.41269 
8.17757 3.20513 15.7089 
5.94751 0.898226 1.93396 
8.59148 0.0854897 0 
-9.36334 8.93278 6.47076 
10.2549 4.27867 0 
-7.70029 1.02123 3.59798 
6.3287 1.02266 0 
7.96158 5.49751 3.91727 
-17.8852 6.80008 0 
4.27534 9.1921 19.0026 
4.83786 2.35286 1.21848 
-8.84814 5.92318 14.605 
-3.66254 8.29295 0 
-7.82026 6.00074 16.1872 
9.02313 5.82377 14.2559 
6.62543 3.68896 2.48383 
-1.00237 2.80449 19.9079 
-9.13208 6.22789 14.0371 
8.98496 4.68376 0 
-5.03894 4.37088 0 
9.98388 9.36442 10.3596 
3.00567 6.53604 19.4903 
-7.17976 1.66119 16.9208 
5.08057 9.20735 1.36101 
9.46405 0.366696 6.76299 
11.6983 3.01974 0 
-3.09457 0.760782 0.455957 
10.764 7.47024 0 
-9.94457 5.0019 10.9269 
9.98651 8.72442 9.5755 
2.55365 1.77777 19.6283 
-7.69274 1.27667 3.58876 
8.74387 8.35909 5.13066 
-6.33699 8.67094 17.6895 
-2.45672 2.87087 0.27798 
6.22472 4.06245 2.14081 
5.29489 9.70624 18.4362 
18.1716 9.2167 0 
-6.00425 1.86798 17.9498 
-2.38244 7.0611 19.6668 
-9.93887 3.41018 10.9783 
-5.37712 7.23903 1.53515 
7.46568 0.284373 16.6014 
9.5428 0.987469 12.922 
-5.17437 8.36309 18.5143 
-9.41087 6.82577 13.3311 
4.02824 0.0951257 0.816672 
0.427092 6.34852 19.944 
16.1059 5.98354 0 
8.85327 6.8611 14.5948 
19.9427 7.10352 0 
-8.7463 4.01806 5.13501 
-3.45774 8.74197 0.590166 
-9.10969 3.17646 5.86185 
-0.0337911 8.53662 0 
8.67102 1.07863 0 
-5.95959 1.61437 1.94257 
-8.5068 1.12782 15.2011 
9.35994 7.32178 13.4601 
8.20241 4.69507 15.6756 
4.12257 6.22153 0.861366 
1.82984 5.03036 0.141446 
-2.05532 0.700462 19.7404 
-0.12666 9.008 -0.0272991 
-7.49032 9.05732 16.5738 
15.4023 4.49281 0 
-5.99926 4.68903 17.9537 
8.89973 3.38296 14.5021 
-16.7525 4.03827 0 
7.87587 1.0108 3.81254 
-0.521618 4.90699 19.9398 
9.58564 6.86713 7.11583 
-2.8138 7.35892 0.375071 
-8.63283 0.454627 14.997 
-2.36798 4.00537 19.6701 
-9.48999 3.55116 0 
2.98862 1.73255 19.4958 
3.35172 1.99262 0 
8.95792 7.12162 5.52234 
-8.8606 6.15786 5.33991 
-11.9368 2.37992 0 
-9.97793 3.71628 9.44648 
3.90782 1.01136 19.1572 
6.76938 7.3493 17.3104 
9.31802 4.55482 13.5662 
5.08113 1.61756 18.5748 
19.9865 2.98207 0 
-2.38095 6.11132 0 
-10.8523 7.51432 0 
-4.10465 6.25871 0.852875 
14.4225 2.15882 0 
-8.87222 8.92577 14.557 
5.11336 4.29222 0 
9.94955 8.79147 9.01949 
18.4093 7.73403 0 
-5.7372 2.94162 18.1494 
6.89684 0.168266 2.72685 
6.92276 8.84882 2.75334 
-0.0403551 4.86201 19.9611 
10.6665 8.79875 0 
-9.17513 9.12592 13.9281 
5.31015 1.22828 18.4263 
-10.2002 4.20697 0 
-13.31 3.39821 0 
18.4411 4.08411 0 
15.8746 2.30489 0 
-9.55177 0.84613 7.01754 
-0.291458 7.98191 -0.0272992 
-19.4055 4.86031 0 
9.37984 7.82627 6.51863 
5.12718 2.36688 1.38838 
-0.291825 4.98971 19.95 
9.12035 8.71783 14.0619 
-2.81786 3.37825 0.376177 
-9.10135 9.63935 14.0998 
-2.29146 8.42242 0 
-9.90723 7.44144 11.2632 
-16.1163 2.22615 0 
-7.98079 0.926622 15.9723 
3.17237 2.66238 19.437 
9.92002 7.19174 8.73819 
6.18305 1.39093 17.8099 
-7.11382 1.52467 2.94867 
-7.91583 1.90359 3.86137 
10.232 9.9122 0 
-0.0780792 7.68647 0 
4.88997 9.07345 1.24908 
-9.98151 9.95315 10.4669 
-8.24253 8.69852 15.6219 
-4.59993 8.38205 18.8315 
12.2504 4.80308 0 
11.2361 8.80076 0 
-8.23313 8.59579 0 
7.29773 6.1989 0 
-1.77131 4.9486 19.8043 
-8.08647 5.23351 15.8308 
-2.22059 9.12388 0.213775 
6.29318 5.64204 0 
-9.10527 0.0636953 14.092 
-0.181105 1.42665 0 
9.92106 2.88173 8.74485 
5.96261 0.894798 17.9823 
-7.94565 3.74664 16.0193 
-3.80068 4.52549 0 
8.40137 7.22809 4.55142 
6.90348 0.84849 17.1849 
0.133986 6.95656 19.957 
12.3665 7.84185 0 
-1.11997 1.85253 19.8922 
2.60626 0.767989 19.6165 
3.79532 1.76694 19.2045 
3.36903 5.90309 0.557384 
3.30673 1.26435 0.534358 
-6.64286 0.581589 0 
-8.50102 1.67855 15.2105 
-12.1224 0.589493 0 
-12.3598 0.666053 0 
-14.0962 9.02028 0 
9.65038 8.07771 7.37255 
4.18179 7.89915 0 
6.16902 9.38409 2.09314 
-13.7382 0.908895 0 
6.70518 4.96807 2.55208 
9.70672 7.1961 12.3657 
-1.14447 2.50355 0.0349999 
0.105746 5.11421 -0.0272991 
5.69451 2.46181 18.1771 
0.155127 3.45835 0 
-14.4264 2.63422 0 
-10.4787 3.94169 0 
18.4649 7.47262 0 
-11.4502 4.07777 0 
7.70531 6.17812 16.3336 
-3.47619 3.19777 19.3388 
9.94146 9.92809 10.955 
5.65277 0.374559 0 
-9.76988 2.45433 12.0527 
-7.33039 0.883904 16.7525 
9.78771 6.333 11.9643 
-12.0332 3.5772 0 
12.7782 8.57542 0 
-1.18331 2.09131 19.8838 
11.3827 2.17242 0 
-9.98429 2.84822 10.3413 
-0.149207 6.38864 19.9563 
-9.59608 3.10899 12.7419 
-8.18595 2.06995 15.6977 
7.83782 7.93457 0 
4.76911 1.84273 1.17811 
-2.91027 5.42955 0 
-5.82024 6.43247 1.8432 
9.11567 3.76324 14.0712 
-7.97043 6.3822 0 
0.721274 9.08584 0 
-6.17985 0.294924 2.10241 
-6.30049 2.0149 17.7181 
10.4185 0.173427 0 
-1.18695 9.94633 19.8833 
4.59645 8.9559 18.8333 
-6.02034 8.56142 17.9372 
-5.70477 0.00391189 18.1704 
6.62367 0.807954 2.48232 
-8.28743 8.61436 4.38392 
6.95091 7.78747 17.1406 
-7.71211 0.525467 3.61243 
-8.45175 0.895426 4.62548 
-9.93795 0.0877136 10.9866 
-7.96548 1.68915 15.9928 
19.5954 7.71842 0 
18.7979 9.94842 0 
8.58092 8.93611 0 
3.17525 2.2291 0 
-15.876 7.69464 0 
5.92604 6.72233 1.91865 
9.36963 4.30695 13.4355 
9.90545 4.21672 11.2792 
8.2959 7.40998 15.5427 
5.48965 2.52736 18.3099 
-0.104557 0.631657 0 
15.1385 2.25244 0 
-9.69301 7.18789 12.4142 
-5.55413 2.83389 1.65344 
14.8572 0.045032 0 
-4.35546 6.85792 0.971708 
-9.6313 7.32966 12.6229 
3.36967 5.63493 0.557621 
18.6849 7.34272 0 
16.2284 2.0505 0 
-9.65606 2.05329 7.3954 
10.6272 6.08444 0 
-6.36709 2.42995 0 
4.00827 4.85305 19.1149 
1.13106 2.85741 19.8908 
-3.91755 9.02178 19.1531 
-16.6084 0.967381 0 
-9.98962 0.844516 10.1004 
-18.3968 5.64345 0 
-15.5002 2.16199 0 
7.0211 3.93936 17.0749 
-7.46071 1.06377 16.6069 
7.64207 7.6963 3.52685 
8.7434 5.43489 0 
-9.23005 3.66565 13.789 
5.40428 5.81846 1.5511 
-5.1415 4.63393 0 
-9.97872 9.69806 9.45839 
-3.21588 5.68131 0.500787 
9.96479 1.77119 10.7449 
6.64286 8.40435 17.4288 
8.17775 3.93607 0 
8.25592 9.93759 15.604 
-15.1381 1.49238 0 
-7.55268 6.3394 16.5042 
-5.68109 5.48704 1.74397 
-9.41477 7.69743 6.62 
-8.82403 0.0541902 5.27436 
3.26997 2.04776 0.520777 
-5.53831 3.65672 1.64215 
0.646035 5.47417 -0.00922514 
-9.40771 0.30408 13.3391 
9.55312 4.59391 7.02146 
-15.4939 5.90196 0 
8.76814 3.47799 0 
7.50096 3.23963 3.35442 
0.92341 5.71936 19.9185 
-7.94587 8.10037 3.89807 
6.93814 0.056168 0 
7.19898 2.45453 3.03574 
3.18791 5.77315 19.432 
4.22723 5.8886 19.0228 
-12.9273 4.56148 0 
-2.79135 6.20055 19.5589 
-0.432561 0.820028 -0.0272991 
9.95406 6.00985 9.08733 
2.1416 8.87608 19.721 
-6.65507 7.28695 2.5092 
-3.46023 0.468485 0.591085 
-13.024 8.02404 0 
3.4727 2.24418 0.595694 
0.0253792 4.25018 0 
-4.10404 9.73421 0 
-8.5098 2.46649 15.1963 
-17.8124 1.25318 0 
-9.96176 5.2652 10.7722 
-8.19596 7.08296 0 
-8.01718 9.97691 15.9236 
-1.58651 2.92912 0 
-10.5386 0.635673 0 
-0.555893 9.4245 -0.0172234 
5.24077 7.58595 0 
2.08932 7.81602 0.187858 
-4.62719 1.902 1.10046 
4.07072 6.14483 19.0886 
-8.5244 3.70044 4.73725 
1.99679 1.66655 19.7536 
4.08043 0.385414 0.841398 
1.0388 8.19362 19.9031 
-9.71112 5.33504 7.61718 
3.3761 8.9394 19.3718 
0.656357 7.78731 0 
-0.0453613 3.79832 -0.0272991 
9.35906 9.53458 6.45832 
-0.455412 6.94511 19.9427 
-17.2199 6.44462 0 
4.34545 2.25847 0 
-9.06413 5.06386 5.75995 
2.44604 7.1527 0 
15.1742 0.575116 0 
-8.03215 1.63708 0 
17.331 2.30292 0 
7.12013 2.05106 2.95513 
-9.59053 7.84794 7.13148 
15.6297 9.96872 0 
7.1357 1.70805 2.97104 
-8.21689 7.9971 4.28021 
7.74514 2.75857 16.2878 
-2.99296 1.57004 19.4944 
-4.94687 6.57748 18.6479 
-5.40268 7.75068 1.55016 
-9.62936 8.63038 12.6294 
-6.68755 1.38886 0 
2.96499 0.840774 0 
-5.47737 6.3904 18.3179 
-9.22435 3.24084 6.11838 
-4.56241 8.62294 18.8514 
7.86187 4.91039 0 
-2.78267 6.82301 0.366608 
7.89418 0.847773 16.0882 
-19.2453 8.23447 0 
-10.0225 9.0126 0 
9.22986 4.86166 0 
-16.5265 7.41205 0 
-16.9627 8.35069 0 
1.51145 4.72219 19.84 
-8.84217 7.07843 5.30687 
-8.15898 9.64193 15.7338 
4.40427 0.382625 0.99484 
12.8904 6.0737 0 
2.4812 1.96058 0.284637 
13.7416 3.87185 0 
-7.67351 8.36997 3.56527 
-16.5966 5.39838 0 
-3.37686 4.36562 0.560277 
-9.6318 5.99094 7.29769 
4.99384 6.81708 0 
-5.16634 5.09749 1.41137 
1.47154 2.38207 19.8453 
-0.980474 0.575134 19.9109 
-7.72406 6.98052 3.62704 
-0.355911 7.73602 0 
-12.766 0.600791 0 
18.4329 6.78021 0 
-10.8198 4.44722 0 
4.22094 6.83619 0.907974 
3.38503 8.28188 19.3689 
-1.72277 4.24911 0.122296 
8.85524 3.48468 5.3303 
-14.1283 8.2961 0 
-9.97423 5.33962 9.39074 
-8.78633 9.94291 14.7283 
-4.99915 3.01698 1.31319 
-5.78472 5.02324 18.1186 
9.23056 5.42721 6.13228 
-5.31282 8.14803 1.49739 
-9.96411 6.87341 9.23857 
18.5916 8.32736 0 
-6.31849 1.95344 2.22108 
-2.91181 8.81998 0 
-9.104 7.83634 14.0945 
7.23206 6.82008 0 
9.04609 8.47539 14.2101 
-1.05554 7.18431 0 
-7.19496 6.77257 16.9038 
-13.5025 9.68769 0 
12.236 5.98652 0 
3.55974 1.1812 0.627858 
-3.27532 6.07339 19.404 
-16.7216 9.87773 0 
-6.88273 9.19712 17.2043 
9.86043 3.1194 11.604 
6.42961 3.69462 2.3162 
19.3726 3.46264 0 
7.46592 1.54743 3.3116 
-10.4696 8.42954 0 
-2.34137 1.31206 19.6761 
-5.98729 7.37866 17.963 
-7.38531 3.74364 3.22624 
-4.40285 7.57298 0 
-9.71207 4.63268 12.3392 
6.40921 7.79436 17.633 
-12.6427 0.0128317 0 
0.469184 7.27393 19.9421 
18.2199 4.30311 0 
8.42187 8.225 0 
9.96295 4.72889 10.7614 
7.8563 5.09764 16.139 
-8.19652 3.01615 4.25027 
3.97726 2.75209 0 
-8.20644 6.10568 4.26486 
-8.33178 8.96167 15.4846 
-4.04309 7.93095 0.823706 
2.58702 8.07701 0 
9.23529 2.87028 0 
8.96981 0.39663 5.54895 
-6.38427 9.40873 2.27739 
13.8412 4.65699 0 
-16.5995 1.68085 0 
13.6364 2.63271 0 
-5.14909 5.54548 1.40125 
13.2953 6.34408 0 
6.10612 0.801768 0 
-10.3524 9.96813 0 
9.99552 5.29039 9.83341 
5.15221 6.21493 18.5287 
3.58114 3.92033 0 
-9.29303 5.215 6.27203 
4.606 1.6476 18.8283 
1.2251 5.3704 0 
3.09335 8.0791 0 
9.49703 6.11238 6.8587 
-9.9853 5.05599 10.2953 
8.48408 3.14909 15.2379 
17.459 3.9411 0 
11.4499 3.50759 0 
-9.91935 8.57683 8.73388 
5.71742 3.62506 0 
-9.98862 1.37081 10.1454 
19.9715 3.39737 0 
-14.0351 3.96519 0 
9.90987 1.6014 11.2394 
3.23951 6.13227 0.50952 
-14.8386 6.43809 0 
15.1307 3.71122 0 
11.0367 2.53475 0 
-3.48273 1.3023 0.599401 
7.56314 8.00968 0 
12.5401 6.15485 0 
11.6063 9.68115 0 
0.171533 0.0657143 -0.0272991 
-9.49201 0.296557 13.0937 
9.47402 7.94835 13.1545 
6.02824 0.421528 17.931 
-2.29459 3.22359 19.6866 
-2.7183 9.39848 0 
-5.20594 4.90773 18.4939 
-5.37653 3.55293 0 
-9.94835 6.16685 9.00149 
12.103 4.2703 0 
9.54347 2.13562 0 
9.94087 4.15404 10.9602 
8.66478 7.6769 0 
6.25389 7.22352 17.7545 
12.2099 3.7404 0 
9.89267 6.88911 11.3942 
-18.6791 8.44949 0 
-9.82604 2.40258 11.7744 
12.2362 5.06029 0 
8.52699 7.19485 15.1684 
-8.75618 6.40693 14.7885 
-0.168709 1.93657 19.9554 
-17.8833 4.6001 0 
-7.25215 0.0224977 16.8399 
3.82737 8.57425 0.726761 
-15.8327 3.79101 0 
-0.75067 7.14948 19.9297 
-6.82016 8.76434 2.65051 
9.77383 0.752226 7.86974 
-9.13858 0.726854 14.0206 
-2.0677 9.35221 19.7376 
0.507254 6.57394 -0.0215389 
-7.45693 2.32062 0 
-2.51728 1.48406 0 
3.98258 8.1788 19.1257 
8.16502 8.3984 15.7257 
11.2081 1.19589 0 
9.9383 1.67577 10.9834 
2.19172 9.22154 0.206174 
-13.8042 7.97937 0 
5.13093 5.20039 1.39058 
9.71993 2.55826 12.3002 
15.2782 6.26954 0 
-3.45605 3.92426 0 
5.59224 7.68949 1.68061 
9.90226 0.727968 11.3079 
-6.85696 1.06348 17.2285 
3.52068 7.20324 19.3201 
9.62604 5.36518 7.27452 
7.22681 3.12719 16.8682 
-9.94164 1.16261 10.9533 
-5.59214 0.348764 1.68054 
-7.13346 0.805556 2.96875 
-7.44337 8.0784 0 
9.93512 0.838478 8.83488 
9.94008 3.67516 8.87709 
4.6174 3.72179 0 
7.76574 4.68442 0 
-4.4181 4.06181 18.9277 
7.96328 4.47075 15.9957 
-0.710876 9.62329 0 
-6.02263 3.78027 17.9354 
-7.05395 3.19018 2.88746 
-7.91307 6.63075 0 
9.06252 1.46829 14.1773 
6.91636 2.58553 17.1729 
9.035 4.18716 0 
-9.23662 8.83402 6.14583 
8.03916 0.340505 0 
9.27598 4.38913 6.2339 
-9.99147 8.63587 10.0167 
9.97832 9.40862 10.6107 
7.13381 3.50705 16.9694 
4.4109 0.636684 0.997979 
6.35569 1.25517 17.6749 
-4.61202 3.30989 18.8251 
9.36334 3.69619 13.4515 
6.01096 9.67055 1.97921 
-4.55728 5.47803 0 
13.7376 5.32774 0 
-6.2426 1.14002 0 
7.26283 2.02509 16.828 
9.85161 1.38377 8.3 
-4.75737 2.78505 18.7482 
16.5906 6.33357 0 
0.12567 1.5391 0 
-9.80965 6.59457 8.03117 
9.92967 1.33516 11.0611 
1.11535 9.11629 19.8929 
9.997 7.5451 9.76645 
8.27831 2.19337 15.5712 
9.96005 9.17379 10.7875 
-7.21944 1.24563 3.05666 
-5.75634 8.62792 0 
-15.1719 8.9651 0 
-14.1431 7.15078 0 
-17.1919 1.00121 0 
-12.4398 3.11059 0 
-18.6235 5.78463 0 
-9.98848 4.83202 10.1519 
-3.1669 9.64129 0 
-9.70704 2.51051 12.3641 
3.45987 5.73915 19.345 
-9.98375 5.66859 10.3654 
9.87407 9.66163 0 
-0.121363 9.70561 19.9575 
18.0751 6.04624 0 
6.37831 1.7663 2.27229 
-14.6781 8.74092 0 
-16.0841 8.52181 0 
6.05893 9.88596 0 
-7.42422 3.58607 0 
-3.04325 3.13779 19.4783 
8.12823 6.68266 15.7749 
19.9972 6.74385 0 
-9.95023 4.91633 9.02966 
14.702 7.75704 0 
-9.99598 3.03859 9.813 
-2.9595 1.0336 0 
11.3058 0.38895 0 
18.0648 8.15228 0 
-7.23082 0.292995 16.8638 
-14.4567 4.64859 0 
-2.26765 0.490156 19.6927 
-0.441476 3.03311 0 
3.96146 6.44071 0.785031 
-6.22445 2.79513 0 
-9.9538 0.830118 9.08348 
-11.312 6.14674 0 
9.68231 3.95595 7.50116 
-8.53109 6.8794 15.1618 
-5.13075 4.18771 1.39047 
-8.80082 4.07999 0 
7.26091 2.81824 16.8301 
-3.27771 5.43076 0 
9.2711 7.02323 6.22297 
6.38462 7.48058 17.6523 
-8.11437 8.82406 15.7935 
-0.851939 7.37606 0 
7.32036 1.75135 3.15984 
-8.24552 1.82368 15.6179 
-7.55123 9.39564 0 
-7.59234 0.00789464 3.46608 
8.06578 3.0318 15.8585 
3.2401 5.09262 19.4153 
-6.84679 2.05695 2.67567 
0.41646 9.55499 0 
-4.19956 7.60884 19.0344 
17.6078 6.7906 0 
8.07751 0.619997 0 
7.97848 3.34976 0 
2.02688 4.48129 0.17669 
16.8622 1.98022 0 
2.10967 5.21534 19.7282 
7.96521 1.98923 15.9932 
0.221235 8.07377 -0.0272991 
-1.49131 4.37858 0.0808958 
-9.70705 2.24993 7.60078 
7.13307 2.23069 16.9701 
-1.59786 5.3856 19.8284 
18.2348 2.05445 0 
6.18758 2.52395 2.10903 
5.18001 3.81234 1.4194 
-8.84414 5.91059 0 
-5.13863 6.06137 1.3951 
1.04842 2.57182 0.0264774 
8.88585 4.19407 14.5298 
9.44298 9.69449 6.70185 
-9.4003 4.41985 13.3579 
-5.02032 9.14097 18.609 
9.96503 4.02678 10.7427 
-5.30434 2.15058 0 
8.15993 9.94654 4.19648 
-14.3062 0.9109 0 
2.22886 1.12901 19.7014 
7.03689 9.4507 2.87002 
-7.52433 2.74654 3.38297 
-7.33509 1.59448 16.7473 
1.29255 9.31203 19.8692 
11.47 5.13534 0 
7.90278 1.73872 0 
-5.39819 2.29651 18.3692 
-1.49307 0.0408399 19.8424 
7.5513 9.58153 3.41593 
-0.706563 1.84252 0 
9.96157 2.39837 0 
10.7392 4.66936 0 
8.10927 0.946173 15.8003 
3.34376 2.00507 19.3821 
6.86154 5.07467 0 
7.70414 9.60026 3.6027 
-9.09067 1.37487 14.1211 
-9.36424 8.04032 6.47335 
19.1078 6.92432 0 
-12.2107 2.40057 0 
9.10663 4.5441 14.0893 
-2.6788 6.10656 0 
-0.990224 8.78887 19.9096 
13.4986 5.52885 0 
-9.98613 2.47063 10.2578 
-12.7141 0.894368 0 
11.1057 6.88445 0 
-13.5672 3.53652 0 
5.32154 7.03129 18.4189 
-9.79312 1.98286 11.9375 
-6.77466 2.83701 17.3055 
-6.11472 7.78419 2.05319 
-9.69995 3.23988 7.57219 
8.71152 9.19207 14.8695 
-16.5085 2.49304 0 
-9.24326 9.57552 6.16067 
18.3815 0.00783026 0 
-11.7418 6.12462 0 
-9.0014 5.28595 5.6196 
-9.32951 1.15527 6.37258 
-10.8672 0.0105304 0 
-8.5249 5.99492 15.1718 
9.35289 7.04489 13.4779 
8.53006 9.24794 0 
-7.72569 8.80271 16.3109 
7.94571 6.68994 0 
-9.86842 0.590779 8.40763 
-2.84862 7.3958 19.5406 
-18.7458 5.56336 0 
7.26103 6.88706 3.09918 
4.03175 4.53538 19.105 
-8.12585 9.75739 0 
0.341864 8.69876 -0.0272991 
9.44746 8.43506 13.2385 
-9.36852 6.67534 6.48577 
-6.79808 1.13907 0 
15.0331 2.53374 0 
9.94775 9.67752 10.8983 
4.49485 2.45654 0 
7.28435 1.65052 0 
-18.8645 3.8806 0 
-9.91998 5.35696 8.73787 
-10.6106 1.45402 0 
-5.82754 0.347476 1.8484 
6.82331 9.99472 17.26 
-11.8193 8.62318 0 
-2.78346 4.30652 0 
-12.9602 4.92758 0 
9.43904 8.68615 13.2598 
-9.82994 1.73595 8.16115 
0.181943 9.00551 19.9549 
7.60676 5.97273 16.4437 
-13.1419 9.99984 0 
10.5124 9.97265 0 
-4.93342 3.43384 18.655 
-7.29971 1.64459 0 
-0.972741 2.29094 0.0197624 
-0.563149 5.29502 0 
-4.57573 5.35234 1.07607 
-5.99718 2.51076 0 
2.65551 8.41907 0.332031 
8.0705 0.911494 4.06502 
-18.9296 9.99585 0 
-8.80378 4.22956 14.6935 
7.96918 5.66915 15.9879 
7.70077 7.97993 3.59857 
8.17952 9.30354 4.22528 
7.46632 5.99111 3.31209 
6.17086 2.12264 17.8195 
4.01183 2.25057 19.1134 
2.07315 4.11661 0 
4.89544 1.10946 18.6751 
-2.71305 2.43376 0.347677 
-19.5352 8.17514 0 
5.06665 6.7036 18.5842 
7.72082 0.800954 3.62308 
7.0495 2.17992 0 
-4.75279 5.32896 0 
8.29414 1.09348 15.5456 
-6.89807 9.98645 17.19 
9.86836 3.90418 0 
-9.23953 7.39484 13.765 
-5.81538 6.58871 0 
-4.38158 4.88696 18.947 
-17.0845 1.7043 0 
8.81742 5.39652 5.2625 
9.97661 7.82037 10.6385 
-9.7369 5.71978 7.72102 
9.79225 5.93691 11.9419 
6.6283 2.19609 17.4424 
-3.3144 9.5746 19.3915 
5.47473 3.66943 1.59681 
9.26565 5.93127 6.21077 
9.76672 2.25546 12.0684 
-3.87871 0.911233 19.1694 
-10.3798 7.18404 0 
-9.44784 6.53134 6.71595 
6.94646 6.68939 2.77758 
-8.90529 4.81036 14.491 
9.60971 4.73753 0 
2.58664 9.68859 19.6209 
-6.69857 3.85347 17.3767 
-5.71594 1.22368 18.1632 
-4.09646 1.16432 19.0778 
7.59553 0.584643 16.4563 
14.3747 9.48484 0 
-5.25773 3.92997 18.4603 
-5.97935 1.46077 0 
7.85258 0.636041 3.78408 
6.38713 3.79417 17.6503 
-4.39649 9.11676 18.9392 
5.69331 0.134601 1.75269 
4.29846 7.21966 0.944701 
18.2922 5.4898 0 
15.3909 9.74702 0 
3.88654 7.12176 19.1661 
-17.0795 7.98127 0 
-13.0044 3.09503 0 
3.87867 6.46715 0 
9.03193 8.27166 5.68791 
-5.09025 4.75229 1.36669 
0.456672 0.794392 19.9427 
-6.35481 6.92915 0 
-9.61129 8.21807 7.2151 
-4.33755 0.858609 0 
3.93808 5.11273 19.1445 
-5.72857 4.4368 18.155 
-9.93495 1.90735 11.0136 
-8.72722 3.88706 14.8441 
-4.82265 2.24264 0 
-9.99525 7.90482 9.70699 
-7.60129 5.76053 0 
-3.7324 2.63236 0 
-7.5741 9.62288 3.44379 
13.4616 3.83517 0 
4.66621 9.19365 18.7964 
-4.57252 3.14494 0 
-0.416772 5.05983 -0.0272991 
-7.05494 8.19868 17.0432 
18.6515 1.55777 0 
-5.25616 9.71587 1.46412 
14.7352 1.41302 0 
9.66055 9.65025 7.41351 
9.36692 1.94726 6.48114 
-5.56516 7.35388 0 
-17.237 0.304919 0 
18.0345 5.43691 0 
-6.89969 5.08297 17.1885 
4.04408 0.941119 0 
0.537723 2.53932 0 
-5.04248 3.7734 0 
-19.9408 3.41547 0 
-7.57397 6.35575 3.44363 
10.4454 1.79468 0 
9.64476 0.546554 7.34989 
7.98784 6.36058 3.94936 
-8.48713 2.00042 4.67748 
-2.54257 1.91475 19.6308 
-9.34935 5.82374 13.4869 
5.3339 0.947066 18.4109 
13.9994 8.8207 0 
0.0532451 2.92821 19.9606 
-18.4869 3.9644 0 
-11.6446 2.32475 0 
-3.52951 6.83889 19.3163 
9.8993 9.19641 11.3346 
19.9305 8.85457 0 
-9.96761 7.99622 10.7195 
8.88172 2.78111 14.538 
9.61854 3.92511 7.2443 
5.17336 9.99249 18.515 
-5.78286 7.80614 1.81655 
-1.80992 4.98165 0 
-2.13885 1.18102 19.7216 
-8.76157 9.29594 5.16239 
-9.14442 8.136 0 
10.7129 8.44074 0 
-11.8917 1.64667 0 
0.16752 7.72223 19.9555 
2.09681 7.60134 0 
9.89549 3.62412 0 
6.10888 5.75855 2.04903 
-9.67284 9.5527 7.46297 
3.45985 3.50734 0 
-8.07769 6.30162 4.07558 
5.13076 7.8521 1.39048 
0.421211 0.0334662 -0.0272991 
9.02804 5.13647 5.6792 
-8.73282 5.95955 14.835 
9.6873 0.0330457 7.52123 
9.99512 8.93467 9.7051 
9.36089 7.37696 0 
2.81229 2.5524 0 
8.34575 3.79572 15.462 
-12.3573 1.95766 0 
9.97882 5.1377 9.45995 
-6.45151 5.34047 0 
-7.68411 2.8873 0 
18.5785 4.94955 0 
-18.6055 2.06682 0 
-9.53071 2.34609 6.95643 
9.11367 4.1163 5.87077 
-12.0558 9.69767 0 
3.79282 1.24304 19.2056 
-9.86818 9.69821 8.40613 
-4.58706 6.4243 18.8383 
8.0056 6.95106 0 
9.83605 6.1497 0 
-9.15137 8.97023 5.9551 
11.738 1.19456 0 
8.01947 1.17018 3.99 
0.223019 5.79776 -0.0272991 
7.6866 7.2829 16.3545 
5.09871 0.895424 1.37166 
-7.11681 5.06077 2.95173 
4.90253 8.05869 0 
-8.96922 2.24735 14.3634 
3.2276 6.09238 19.4193 
-7.36856 5.69179 0 
-7.71056 6.17568 16.3278 
-9.21151 5.47247 6.08964 
18.6991 0.30219 0 
-8.78422 7.70384 5.20299 
9.96543 1.66446 9.25839 
9.2974 2.1808 0 
8.98169 1.16332 5.57552 
9.73345 3.4461 7.70712 
-8.41237 5.87431 15.3541 
-7.39456 8.32746 3.23569 
8.07743 1.79501 15.8429 
-5.00499 4.48086 18.6171 
-1.29071 3.82324 0.0479745 
9.61509 8.6556 0 
18.9616 6.09702 0 
9.99257 3.98445 9.96698 
-6.59201 5.80611 17.4764 
-7.15182 9.62798 16.952 
-9.95164 3.40056 9.05097 
16.4667 1.98562 0 
-9.80394 5.36169 7.99461 
17.7288 4.30887 0 
18.6628 6.55617 0 
-5.33324 9.76778 18.4113 
4.91071 3.72653 0 
-6.86887 1.43512 17.2173 
8.97437 8.18195 14.3532 
13.275 9.45528 0 
6.00035 6.07664 1.97164 
5.39639 1.49511 1.54646 
4.71724 3.67655 1.14765 
9.94642 2.05672 8.97247 
-17.0442 7.17972 0 
2.78838 1.89504 19.5599 
-9.99394 4.96702 9.90517 
4.51748 1.9934 0 
4.03494 9.90107 19.1037 
-3.6831 1.75773 19.2517 
7.61225 1.40517 0 
8.68687 6.43258 5.02848 
-18.769 4.78919 0 
0.861257 4.37893 19.9248 
9.97725 9.65691 10.6327 
-16.3681 8.73336 0 
-7.69558 3.56464 3.59223 
-9.95144 3.4419 0 
-5.66525 7.25386 18.1961 
8.7037 1.59518 5.05866 
8.82792 9.47205 0 
15.5407 1.23271 0 
-9.4312 2.29919 6.66766 
9.57932 5.5445 7.09749 
-11.2494 1.72269 0 
7.78344 0.338613 0 
-6.61509 7.61376 2.47497 
9.05246 0.620115 5.73383 
-19.2386 1.30691 0 
9.48485 4.37177 6.82336 
1.48808 6.73908 0.0803175 
5.36885 4.05585 1.53029 
9.97588 1.11434 10.6451 
-11.5026 8.98153 0 
18.9527 7.17185 0 
-5.77776 5.07402 0 
-8.70413 2.54927 14.8815 
-10.895 3.21527 0 
-19.6704 5.18871 0 
1.30512 5.08533 0 
13.9762 1.09501 0 
2.43986 8.96981 0 
-0.791447 9.37392 0.00367668 
-9.6478 5.79544 12.5671 
9.07481 8.06065 14.1528 
6.17069 7.47761 17.8196 
-4.43801 3.75911 0 
18.6697 4.65414 0 
-7.24732 1.72448 3.08516 
2.35312 5.94288 19.6734 
6.92326 5.40385 17.1664 
8.83759 8.81471 0 
2.30548 0.61748 19.6842 
-17.7634 3.8285 0 
-2.9804 3.76189 0 
14.7459 7.48507 0 
9.00166 8.5244 5.62019 
4.7701 9.13331 0 
7.83623 7.42615 16.1658 
-1.89803 2.38289 19.7758 
-8.24815 3.32217 4.32617 
-3.7268 7.6209 0 
4.53754 4.88261 1.05798 
-7.44727 3.42842 16.6219 
-5.23938 0.360457 1.45427 
-9.95307 2.57075 9.07247 
0.874835 3.08675 19.9242 
-7.72339 2.78815 3.62621 
8.2211 6.57085 4.28641 
-5.82873 9.67645 18.087 
7.36656 8.5744 16.7121 
8.35827 1.97129 4.48805 
6.72594 0.639547 0 
-9.65218 6.55375 0 
-8.41219 6.9542 0 
1.25792 6.83524 0.0450653 
-9.16849 4.296 13.9449 
5.37643 0.856168 0 
-8.38426 5.51061 15.3996 
6.38467 1.99335 17.6522 
19.8755 7.34902 0 
5.19252 6.06772 1.42675 
3.47758 6.90982 0.597497 
-8.37485 1.95847 15.4149 
-13.8073 5.82841 0 
-19.2348 5.66799 0 
-7.72117 4.53438 16.3159 
5.07105 9.72668 1.35542 
-5.59265 7.87377 18.2431 
-1.8277 5.2234 19.7916 
3.43531 3.40645 0.581876 
-19.5063 2.04972 0 
-8.48226 7.90396 0 
9.13545 0.426524 0 
10.3537 5.97044 0 
9.77997 4.73265 12.0027 
8.36434 0.858235 4.49698 
-9.99141 6.81467 10.0194 
13.784 9.54908 0 
-7.69869 7.36227 3.59603 
-9.97604 2.71178 9.418 
-19.2513 2.90841 0 
