ply
format ascii 1.0
comment VCGLIB generated
element vertex 1852
property float x
property float y
property float z
element face 0
property list uchar int vertex_indices
end_header
-73.214 11.3263 31.3712 
3.91194 14.5682 183.989 
57.6195 -19.954 -19.7186 
86.1687 14.5682 146.866 
74.7698 12.0629 179.747 
67.2356 -8.05645 189.482 
82.5033 12.301 165.608 
-56.8566 -15.4318 87.9606 
134.877 15.2538 8.11425 
37.4608 14.5682 200.14 
-13.4767 -15.4318 50.5105 
-97.6187 -14.4846 12.6687 
-81.1295 14.5682 96.2578 
-67.5023 14.5682 170.308 
-61.2856 14.5682 164.719 
119.728 -13.8351 16.515 
81.3784 -15.4318 126.499 
11.0296 14.5682 44.5111 
-32.715 0.377424 213.499 
-145.978 17.2606 -3.76952 
148.633 18.5508 -11.4091 
6.26474 14.5682 45.9544 
-84.6938 17.7665 -6.76514 
31.0523 14.5682 90.5376 
-25.8063 14.5682 168.779 
62.8547 -15.4318 83.014 
170.818 15.0624 9.24754 
-9.26206 2.25547 219.177 
-141.027 9.92386 38.7461 
-54.3307 -15.4318 93.4528 
-130.062 -12.0228 27.2467 
-72.4071 12.9822 183.103 
-83.6146 7.8321 96.3649 
99.8316 12.8511 22.3419 
181.647 -13.406 19.056 
29.9523 8.58238 44.7879 
87.3675 18.539 -11.3393 
-22.4124 -15.4318 130.755 
54.8592 -15.4318 98.3171 
-103.368 -13.198 20.2879 
57.0095 17.7085 -6.42182 
88.5675 -9.49595 145.638 
37.4832 -15.4318 71.4244 
176.447 -13.1267 20.71 
-3.86453 14.5682 89.786 
-155.44 10.5466 35.9879 
55.1804 -13.6182 200.751 
-55.391 3.22143 200.59 
97.6801 -17.4158 -4.68856 
-62.0649 14.5682 126.172 
-42.9868 10.8925 33.9395 
-64.5713 -4.90214 39.695 
-18.8415 18.89 -13.4181 
-61.2844 11.4342 195.566 
8.1183 17.9632 -7.93003 
68.3711 -15.4318 169.548 
-4.17496 14.5682 76.3754 
-8.15562 14.5682 183.654 
-36.7076 14.5682 145.889 
87.5453 -15.4318 124.519 
-53.6046 -15.4318 140.723 
12.4448 14.5682 102.356 
-46.8935 5.03765 39.6805 
26.0784 16.2726 2.08139 
22.8707 -14.2891 13.8264 
37.1675 18.4021 -10.529 
83.033 14.5682 104.483 
59.1737 12.5979 23.841 
12.0853 -16.5786 0.269363 
51.1166 11.5364 203.728 
64.1035 -15.4318 151.327 
-4.74497 14.5682 56.1657 
-155.529 -12.842 22.3959 
20.7017 17.7558 -6.70161 
87.7829 14.5682 133.9 
-63.4393 14.5682 81.7574 
-55.556 -15.4318 112.242 
-3.47408 14.5682 75.6841 
26.0829 14.5682 153.516 
-136.989 -16.6694 -0.268374 
-77.7575 -15.4318 125.677 
72.2479 -14.297 13.7795 
61.5267 14.5682 163.864 
-35.1133 3.96037 46.7892 
165.177 12.8849 22.1418 
38.9944 16.4215 1.19977 
-63.9536 -14.038 192.97 
52.4934 14.5682 114.654 
-93.6821 -13.23 20.0978 
30.6826 11.0072 33.2604 
-54.7941 -15.4318 176.794 
58.0624 14.5682 100.324 
16.9951 14.5682 68.6626 
51.9287 16.497 0.752419 
31.776 14.5682 207.098 
131.684 18.3002 -9.92513 
-22.8594 -15.4318 118.611 
-49.4725 0.78575 39.9833 
-6.375 12.4676 219.426 
3.38813 14.5682 71.4165 
-62.3382 -3.36492 194.569 
37.987 -12.5094 24.3653 
89.7514 11.62 122.977 
-141.191 4.53742 39.7339 
12.5621 14.5682 176.806 
-2.9299 -15.4318 212.351 
-38.4244 14.5682 147.578 
27.4734 14.5682 213.741 
-14.9697 14.5682 126.41 
18.1018 14.5682 99.8879 
-65.4668 14.5682 160.815 
-1.81923 14.5792 12.1086 
-31.0862 14.5682 49.6927 
-114.616 12.733 23.041 
-21.4777 -19.2136 -15.3339 
80.6283 -11.885 28.0626 
84.5758 -14.6493 11.6935 
45.2479 -10.519 36.1513 
-53.2019 14.5682 200.387 
-165.232 -12.8151 22.5551 
-156.297 13.5896 17.9689 
58.6074 -11.2537 197.956 
34.0211 14.5682 163.478 
167.808 -10.9097 33.838 
34.3666 14.5682 162.219 
-31.8594 -15.4318 53.7403 
-42.3947 -15.4318 115.489 
-117.85 17.6023 -5.79292 
-4.65786 -15.4318 165.935 
-123.255 10.3462 37.1747 
-163.808 -15.6916 5.5218 
140.039 -17.8303 -7.14276 
58.8527 14.5682 170.988 
73.9752 16.6114 0.0748215 
-53.6378 -12.5631 24.0471 
174.369 -18.3088 -9.97645 
-4.12208 14.5682 87.2823 
-14.2651 -15.4318 171.464 
74.2586 17.2863 -3.92159 
-0.199034 -15.4318 164.267 
9.8749 -15.4318 123.213 
65.7001 14.5682 71.5935 
-42.3502 -15.4318 143.014 
-83.1857 11.7326 164.007 
-12.8711 14.5682 154.01 
50.9347 -7.58273 55.458 
62.5953 14.5682 182.666 
-86.6464 -3.87636 153.99 
87.4529 14.5682 111.737 
5.96085 11.193 32.1602 
92.0242 -14.7494 11.1012 
-35.4589 14.5682 194.999 
-37.5262 14.5682 154.866 
-41.6851 13.3697 49.8973 
43.9303 14.5682 182.77 
-37.3693 14.5682 51.5248 
-140.987 16.1073 3.05981 
-10.2244 18.135 -8.94703 
147.384 17.7697 -6.78423 
82.6583 -19.8422 -19.0562 
-136.045 11.2398 31.8832 
-18.2042 14.5682 161.992 
-98.647 8.33429 39.12 
181.306 -15.3439 7.58081 
11.0134 14.5682 56.3421 
68.0359 14.5682 182.716 
-42.2795 7.07172 209.105 
-57.7718 17.2233 -3.54826 
-97.5366 -13.0042 21.4354 
42.2807 -15.4318 56.0798 
28.531 14.5682 48.3419 
129.156 18.8601 -13.2408 
134.718 14.7872 10.8773 
-78.3354 -15.4318 126.128 
17.3634 -15.4318 199.933 
-138.077 -19.9036 -19.4197 
107.037 13.1214 20.7412 
165.214 -12.9503 21.7545 
84.664 7.47439 99.1325 
22.0995 -15.4318 103.678 
8.14162 14.5682 194.375 
-79.5462 14.5682 116.446 
-79.4863 14.5682 122.781 
-70.1794 14.4669 185.992 
-114.94 -16.2685 2.10542 
-78.5334 -16.0376 3.47263 
26.2992 14.5682 184.597 
27.4565 14.5682 140.965 
-75.1026 -15.4318 84.7893 
20.6983 14.5682 189.632 
-36.4453 14.5682 94.4067 
144.891 13.3287 19.5136 
-5.17708 14.5682 99.5358 
-34.6197 7.19084 212.73 
67.8226 13.1762 188.812 
73.0916 14.5682 176.372 
8.61007 14.5682 105.285 
23.9339 14.5682 198.712 
-27.4681 14.5682 168.831 
17.8971 14.5682 211.099 
-10.5323 14.5836 12.0827 
85.5603 -15.4318 103.676 
-27.6944 6.81714 215.288 
132.494 12.6091 23.775 
85.3189 1.06061 101.013 
-87.9201 14.5682 147.362 
-134.972 14.2757 13.9061 
-149.309 11.3343 31.3236 
-18.283 14.5682 76.4383 
45.435 -12.8679 22.2421 
-0.0350357 -15.4318 177.525 
121.626 12.5799 23.9479 
-61.1327 14.5682 117.2 
2.22817 14.5682 184.578 
-68.4933 -15.4318 112.884 
-65.0961 -4.11787 191.803 
-36.2467 -15.4318 99.371 
65.2413 -15.4318 149.204 
16.73 14.5682 108.991 
40.5823 -15.4318 167.782 
-87.2865 11.253 107.729 
45.935 7.84984 207.049 
84.5432 3.71069 160.515 
-41.0728 14.5682 65.2266 
17.5253 14.5682 119.505 
76.9601 10.8596 34.1343 
41.4923 14.5682 111.014 
-30.659 -15.8974 4.30271 
153.649 14.1692 14.5368 
140.141 19.2897 -15.7849 
-79.6418 14.5682 88.2911 
29.8426 -15.4318 148.253 
-26.7405 14.5682 85.9203 
27.6356 -15.4318 111.321 
-126.952 16.9316 -1.82103 
-59.4191 14.5682 132.135 
74.24 14.5682 132.282 
-53.7773 10.8516 57.4909 
86.5877 9.79017 105.111 
49.8925 -15.2113 8.36567 
-80.672 12.3251 89.7644 
-21.6306 14.5682 193.37 
-55.1978 -15.4318 145.88 
-10.6445 14.5682 95.2057 
63.9521 -5.30354 66.3405 
-64.75 11.4696 30.5227 
13.9817 -15.4318 144.94 
-94.6245 -18.5871 -11.624 
-145.72 -11.5164 30.2451 
105.476 11.7049 29.1292 
-78.6954 -15.4318 134.925 
33.6906 14.5682 153.441 
-77.032 -13.4612 18.7289 
31.976 -16.9566 -1.96908 
-122.611 16.7156 -0.541739 
-41.9562 -3.86209 39.8059 
-15.5739 11.3967 30.9543 
-36.34 -15.3242 47.3196 
47.0285 -18.7208 -12.4162 
13.1398 14.5682 58.8588 
-43.1281 -15.4318 55.7152 
74.8797 14.5682 174.578 
16.5758 -19.3024 -15.8599 
-143.419 -12.1719 26.3637 
-52.2195 -15.4318 134.223 
12.9859 19.2531 -15.5679 
70.8579 -14.6485 11.6983 
35.0485 -11.0139 33.2206 
-64.2513 14.5682 144.27 
98.9868 8.91923 38.9852 
64.5546 -3.3213 66.9458 
5.44751 14.5682 124.96 
-57.3689 -15.4318 84.0261 
0.240486 19.5608 -17.3901 
116.883 -13.1872 20.3517 
7.18152 5.70538 39.9432 
-15.79 -3.76597 218.256 
17.7294 -18.5756 -11.556 
-0.721591 14.5682 111.327 
-79.7907 14.5682 156.482 
-53.4327 -15.4318 124.139 
-47.607 14.5682 148.115 
-94.8977 18.1089 -8.79261 
16.2152 14.5682 185.092 
-161.672 -17.8719 -7.38885 
-55.2844 14.5682 116.754 
31.302 -15.4318 183.762 
86.0353 -3.40285 156.072 
-89.0736 -15.4318 135.671 
10.2949 10.5672 40.2484 
104.794 -12.8462 22.371 
-39.8249 -6.88016 48.9537 
-30.3324 -15.4318 75.7732 
4.83915 -15.4318 165.111 
-37.3054 14.5682 145.315 
35.2232 -15.4318 58.8972 
72.2338 10.1231 38.4957 
-11.4114 16.045 3.42885 
32.8664 4.65714 213.439 
46.5545 -15.4318 86.5428 
-153.548 11.9047 27.946 
31.7709 14.5682 46.5253 
77.7878 -15.4318 159.53 
89.998 -5.49248 130.24 
-56.2248 14.5682 193.094 
-66.1707 -15.4318 87.7947 
169.166 5.56843 39.603 
-118.185 19.9746 -19.8402 
174.07 -17.2528 -3.72322 
-28.5293 14.5682 186.973 
-20.2174 -15.4318 153.9 
45.8857 -8.9181 207.078 
4.44114 -11.8405 28.3262 
-5.25995 14.3919 13.218 
168.073 -18.4797 -10.9885 
-159.252 -19.4623 -16.8068 
-48.0524 14.5682 144.37 
-11.2493 7.46019 40.3633 
0.227754 -15.4318 169.015 
-84.3203 -5.40551 161.117 
-62.1504 -10.1907 38.0955 
-117.355 14.8764 10.3492 
44.9277 -19.4431 -16.6928 
-24.1185 -16.9165 -1.73144 
-10.3176 14.5682 62.9489 
-62.8653 14.5682 185.034 
64.9235 -9.74496 38.7887 
-54.9932 14.5682 134.371 
-60.5384 -15.4318 82.4272 
54.6379 14.5682 191.06 
27.944 -15.4759 6.79914 
49.4427 -15.4318 65.2975 
-119.894 -1.52679 39.9676 
95.5303 10.4925 36.3083 
-65.4248 14.5682 77.7095 
27.0688 14.5682 136.688 
7.49823 -15.4318 121.962 
-20.4434 -19.2243 -15.3975 
38.8458 14.5682 198.523 
-43.1669 -15.2826 50.6909 
88.5657 -0.713292 113.656 
89.8649 -3.80402 124.811 
-105.599 -13.0024 21.4461 
-66.8982 9.02557 189.86 
-35.9088 14.5682 89.3625 
54.1576 14.5682 111.814 
-43.8883 2.13702 51.0844 
79.3539 -5.30529 39.6425 
-41.7637 -8.32139 39.1225 
-45.6701 -15.4318 168.631 
4.01733 -15.4318 160.16 
168.487 14.6084 11.9356 
-86.6928 -15.4318 123.765 
180.389 -8.56019 39.0707 
-65.4134 -13.3068 19.6433 
19.911 -15.4318 76.3381 
-65.4894 14.5682 166.83 
-58.5368 1.1449 61.2946 
-111.759 -7.60267 39.2617 
78.0617 11.8785 28.1009 
63.1565 -15.4318 162.231 
-50.6102 -15.4318 145.12 
-150.419 -13.1545 20.545 
9.85775 14.5682 185.82 
-12.7579 -15.9817 3.80366 
-157.214 -19.5558 -17.3603 
3.43024 -15.4318 170.966 
-19.8926 15.7126 5.39755 
-25.2171 13.5135 18.4192 
-105.753 -7.98196 39.1882 
-149.161 13.4622 18.7233 
-17.8531 -15.4318 120.236 
82.2368 14.0116 15.4696 
-54.0815 -15.4318 79.7266 
29.2247 -9.41652 44.5348 
-33.5015 -0.187872 213.187 
-75.6234 -8.7167 178.449 
-64.6089 14.5682 90.8408 
-54.2275 -15.4318 153.537 
30.6351 14.5682 161.498 
7.12372 -11.616 29.6554 
39.2324 -1.01742 48.659 
-65.7806 -15.4318 146.007 
-74.8887 -15.4318 151.719 
-107.532 13.8049 16.6938 
51.7292 -7.21726 203.302 
-40.9473 14.5682 199.545 
-100.657 -5.22497 39.6545 
-27.8878 14.5682 100.131 
76.9084 -14.467 12.773 
111.805 13.0258 21.3075 
-45.0666 -12.0731 26.9488 
-18.9611 11.1753 32.2653 
31.9286 14.5682 97.7077 
88.7182 12.3011 114.523 
46.901 14.5682 128.052 
-46.6431 -15.4318 160.522 
-87.262 0.7456 151.68 
62.5158 -14.51 12.5187 
-20.6675 10.5417 42.0625 
57.9732 -15.4318 163.265 
37.4544 -11.1528 32.3983 
156.799 11.6981 29.1693 
-48.4954 17.7607 -6.73076 
-86.6093 14.8919 10.257 
-49.8683 -10.3282 37.2816 
-62.0463 14.5682 125.437 
-3.28193 -15.4318 176.223 
40.7369 -15.4318 151.693 
78.6213 4.34094 173.459 
-136.882 -16.232 2.32144 
89.944 -7.27041 126.5 
30.0085 -15.4318 67.65 
148.577 13.7881 16.7934 
150.213 -10.6297 35.4961 
6.66164 14.5682 81.7677 
1.71172 -14.9334 10.0114 
-68.5751 14.5682 150.402 
-87.172 7.30326 152.037 
-28.5046 19.367 -16.2422 
18.0626 14.3637 217.819 
-158.192 -13.9498 15.8356 
-23.2328 14.5682 114.938 
3.59921 -17.2296 -3.58571 
66.939 -12.8012 22.6376 
41.4424 13.1371 20.6484 
-155.21 16.8047 -1.0696 
-65.0023 -0.0326811 39.9993 
42.5859 14.5682 80.3238 
-110.097 11.935 27.7663 
108.505 16.6906 -0.393858 
17.3078 17.4631 -4.96814 
10.6238 14.5682 85.0527 
-159.11 15.4297 7.0724 
-11.97 -15.4318 137.379 
-64.5167 -15.4318 175.777 
-80.0368 1.43352 170.812 
91.5546 11.7786 28.6929 
65.2985 -0.620078 39.9868 
2.58149 -18.6982 -12.2819 
-54.9372 14.5682 62.903 
24.6034 14.5682 212.965 
158.137 -10.226 37.8866 
22.3974 5.98757 39.5402 
47.7551 14.5682 121.334 
84.4395 17.1746 -3.26 
70.0396 14.5682 158.588 
-90.4043 -4.636 39.7233 
51.0145 -15.4318 74.9556 
-18.2327 -15.4318 123.019 
-29.0704 -15.0601 9.26094 
-3.51555 -15.4318 189.241 
26.4789 14.5682 183.292 
135.098 19.7823 -18.7016 
28.7009 -15.4318 201.802 
-71.9399 -14.2576 14.013 
113.746 17.9224 -7.68811 
-58.3188 2.72482 61.1083 
-85.9364 -6.05497 156.393 
9.7896 14.5682 110.786 
29.5462 -18.5403 -11.3469 
33.0813 -17.5118 -5.25704 
17.6405 14.5682 173.854 
55.6209 -15.4318 64.1472 
-67.6694 16.1484 2.81654 
-37.9977 -15.4318 54.2383 
12.4609 14.5682 211.347 
-5.31243 14.5682 200.018 
-13.532 14.5682 113.939 
-28.1437 14.5682 143.007 
1.26783 -15.4318 205.751 
98.9838 15.2003 8.43069 
80.4671 -13.6289 17.7363 
47.5031 14.9943 9.65056 
70.6887 19.9505 -19.6979 
172.403 -13.0976 20.8824 
18.5778 -17.2447 -3.67513 
-33.1981 -15.4318 86.3587 
8.50893 7.77159 39.229 
48.4014 14.5682 96.8356 
61.6234 -15.4318 110.429 
-138.167 -19.3765 -16.2987 
-19.969 -16.6372 -0.0775814 
-117.391 -14.1341 14.7446 
15.4555 14.5682 67.9071 
-41.7807 -10.6572 49.9442 
3.29309 -9.95319 219.596 
135.984 19.8364 -19.022 
46.217 -10.7858 34.5718 
-5.08611 -15.4318 211.433 
64.8778 -15.4318 172.821 
20.9981 14.5682 125.681 
48.6205 -2.48705 205.391 
33.4168 14.5682 202.023 
81.7696 -6.36251 167.253 
-76.6499 -15.4318 145.887 
24.0955 14.5682 126.83 
5.15421 -10.2008 38.0355 
61.585 19.1978 -15.2407 
-37.1704 14.5682 127.866 
-92.9334 16.4333 1.12935 
-22.109 -15.4318 122.935 
153.113 -16.0915 3.15378 
66.8804 14.5682 89.1577 
84.7102 -11.5563 30.0091 
167.462 11.8245 28.4211 
-129.516 19.839 -19.0373 
-53.8424 -15.4318 94.6005 
150.657 15.4606 6.88929 
54.4107 -16.6391 -0.0889349 
35.4049 -18.7648 -12.6767 
25.8398 1.50938 215.866 
40.5812 -15.4318 118.081 
-47.3752 -10.0946 38.6645 
65.6615 12.5903 23.8859 
1.88498 14.5682 169.1 
54.9527 14.4881 12.6482 
-88.0035 -9.85387 38.7628 
-140.482 -14.8914 10.2599 
-14.8845 14.5682 177.069 
-63.4954 -15.4318 97.1564 
-56.844 14.5682 194.486 
-32.0756 -12.5671 24.0238 
-39.7134 -15.4318 155.166 
-89.8995 0.0671535 133.892 
3.49911 -15.4318 200.178 
-11.9225 -15.4318 160.132 
47.5437 -15.4318 191.245 
-76.0137 13.6379 17.6826 
58.6264 14.5682 180.038 
-100.572 18.0531 -8.4619 
-42.6997 19.7557 -18.544 
141.689 17.831 -7.14681 
81.6279 14.5682 105.839 
126.961 17.8965 -7.53459 
80.1166 13.6054 88.6614 
47.8845 14.5682 198.456 
98.1424 -17.9347 -7.76082 
51.7583 -15.4318 151.791 
13.6076 0.723639 40.6923 
-74.2613 -15.4318 140.1 
-16.3711 14.5682 183.357 
50.6486 -15.4318 112.104 
-10.4109 18.6564 -12.0347 
7.60727 14.5682 107.643 
97.9865 -11.8552 28.2393 
-18.7127 -15.4318 152.519 
36.2161 -16.0511 3.39263 
-54.5074 -15.4318 187.233 
-60.6369 -17.0649 -2.61026 
124.187 4.32587 39.7564 
54.3374 15.1292 8.85191 
92.0606 -12.9031 22.0341 
181.413 -13.0384 21.2327 
106.969 19.9626 -19.7692 
175.091 -13.2464 20.0009 
-91.5703 12.0348 27.1754 
72.0989 -6.8448 183.521 
48.9959 14.5682 82.6562 
-88.3631 14.5682 119.105 
0.583391 -15.4318 178.582 
135.693 11.4823 30.4472 
19.1126 14.5682 189.755 
-12.7711 -15.4318 174.433 
174.696 15.8185 4.77025 
6.20753 -11.7103 219.438 
118.334 12.4637 24.6358 
21.6502 -15.4318 192.18 
-98.792 16.5803 0.25895 
27.7771 10.8993 33.8994 
47.2268 14.5682 156.36 
-51.3508 12.1158 203.565 
-3.04137 14.5682 179.814 
125.472 11.7869 28.6433 
77.7489 -14.7193 84.3348 
123.803 -19.9406 -19.6388 
84.0394 -15.4318 107.546 
-4.52926 19.2972 -15.829 
-147.17 1.66859 39.9645 
-107.042 -18.6408 -11.9421 
-3.8305 14.5682 160.368 
-68.3893 14.5682 85.873 
-5.13164 -15.4318 207.362 
-27.5405 -15.4318 78.6879 
-25.3839 -12.1334 26.5917 
30.7841 4.59779 214.226 
-41.1541 -15.4318 181.927 
-45.1733 -15.4318 63.1042 
-97.8138 10.7092 35.0251 
80.2803 -0.916315 88.9762 
-32.6879 -15.4318 67.9582 
-15.4516 14.5682 46.0046 
54.7598 -17.0743 -2.66581 
127.23 17.7561 -6.70343 
-41.7368 14.5682 159.51 
20.8737 -12.8818 22.1602 
65.2412 -15.6667 5.66883 
-18.4594 14.5682 142.784 
93.8143 -11.7878 28.6383 
-30.7558 14.5682 211.415 
3.86997 -10.2773 37.583 
21.8705 -15.4318 59.8407 
29.4258 12.6206 214.707 
73.7621 -6.41921 78.0921 
-83.499 13.85 163.227 
-18.6372 14.1148 41.6121 
135.661 -16.3332 1.72225 
56.9891 1.31213 59.998 
51.8972 -15.3867 7.32699 
148.027 -19.8795 -19.2773 
55.033 -15.4318 152.38 
-89.9988 -12.9307 129.861 
-32.5283 -15.4318 72.8288 
45.0214 2.58501 51.7276 
-12.4 17.0994 -2.81499 
-59.9069 3.94145 62.4928 
35.2071 -19.9812 -19.8795 
-46.9538 10.1114 38.565 
84.5334 -15.4318 106.197 
-34.109 14.5682 167.438 
-72.0732 -8.44903 183.558 
54.164 0.512003 57.7803 
-86.6448 -17.6457 -6.04939 
11.8943 -15.4318 112.908 
-154.839 -13.8737 16.2865 
130.922 14.6051 11.9553 
-65.1348 3.8183 191.762 
-54.5902 -19.9464 -19.6733 
172.373 14.7787 10.9275 
62.723 14.5682 71.6067 
-78.1263 -15.4318 95.5992 
32.964 -15.4318 202.073 
82.244 14.5682 129.914 
-25.086 14.5682 177.911 
134.608 -17.1584 -3.16391 
-30.2831 -16.6081 0.0943909 
43.1238 14.5682 56.4298 
28.2498 -7.14241 44.2061 
11.715 14.5682 84.4513 
0.911698 14.5682 91.2124 
35.5116 15.0766 9.16361 
-85.5077 -10.3702 37.0325 
-3.99753 7.30017 219.566 
4.96051 -15.4318 120.057 
13.3099 -15.4318 82.5425 
-34.8054 5.8992 46.6605 
-62.9921 13.5927 17.9503 
-62.5588 -16.0175 3.59189 
171.989 17.4558 -4.92489 
-136.422 0.233162 39.995 
-42.3223 14.5682 96.6512 
69.1289 14.5682 82.6528 
70.3518 4.81085 185.786 
8.56258 -15.4318 195.141 
-98.3698 -2.87892 39.8886 
87.8687 3.8547 110.189 
83.5338 -15.4318 111.288 
-29.2984 14.355 214.748 
-63.0319 -15.4318 150.176 
170.401 17.9986 -8.13912 
66.4557 10.4729 36.4246 
5.18711 14.5682 62.9067 
-24.3831 14.5682 175.682 
-9.51368 10.451 36.5543 
-54.5888 14.5682 144.719 
168.366 -18.8495 -13.1783 
30.5412 14.5682 63.256 
-43.3655 -16.9798 -2.1067 
-100.836 11.794 28.6017 
-40.6429 16.0404 3.45606 
-19.3432 -15.4318 175.673 
76.2412 14.5682 106.086 
-153.636 14.7776 10.9338 
-69.0581 14.5682 104.533 
88.512 14.5682 140.631 
-146.326 -16.0052 3.66469 
79.7391 10.3278 171.387 
27.2085 -15.4318 134.563 
-42.5783 0.446437 39.9905 
-76.7776 14.5682 110.178 
-67.9088 14.5682 155.063 
50.8657 11.8072 28.5231 
35.8798 14.5682 75.1593 
-4.88743 14.5682 185.725 
-47.1451 14.5682 135.654 
-36.6084 -15.4318 193.482 
-19.7847 14.5682 99.0421 
-41.8447 14.5682 179.544 
7.65006 -13.1706 20.4501 
-81.2799 -12.3255 25.4543 
172.18 13.814 16.6397 
51.9474 -15.4318 100.758 
-47.9875 -15.4318 70.6916 
-137.945 15.5798 6.18387 
-89.9587 -8.05506 132.328 
-8.69891 -15.4318 88.8513 
68.7852 -15.4318 179.779 
-57.0156 14.5682 74.3649 
-147.445 11.9877 27.4547 
-65.9521 11.3375 190.894 
-64.659 14.5682 157.514 
111.654 10.1253 38.4827 
147.498 13.3107 19.6205 
-59.5859 13.4311 197.106 
-139.271 -19.424 -16.5797 
78.8957 0.310045 172.959 
-20.2386 14.5682 207.743 
-40.8632 -15.4318 140.447 
-82.9837 2.13623 164.49 
-68.7217 14.5682 118.66 
-82.3241 -16.178 2.64143 
157.136 -14.9184 10.1002 
-15.779 10.4364 36.6404 
-36.9238 14.5682 112.225 
-116.32 12.7999 22.645 
-75.0185 -10.6945 179.374 
48.8057 -17.5703 -5.60321 
50.8994 1.12361 203.879 
-33.1073 10.1642 213.344 
27.5009 14.5682 156.318 
-159.924 16.3719 1.49346 
-62.6979 -8.65071 65.0892 
42.5844 -5.92114 208.943 
61.2806 14.5682 180.305 
65.3107 -15.4318 89.4402 
47.7389 -15.4318 111.721 
-81.2414 -15.4318 123.978 
-76.9985 -15.396 176.247 
65.1773 14.5682 115.474 
168.452 -7.40193 39.3005 
-160.591 15.2422 8.18267 
4.05607 -15.4318 117.745 
48.6361 -16.27 2.09677 
82.3296 -15.4318 151.636 
-23.18 -15.4318 110.796 
8.99167 17.2529 -3.72385 
-46.4941 14.5682 170.497 
43.8615 -18.0551 -8.47379 
39.0383 14.5682 123.708 
-32.4927 -15.4318 122.29 
-39.6768 -15.4318 199.125 
-2.09173 -15.4318 118.71 
-110.436 18.8497 -13.1792 
55.937 14.5682 129.842 
75.4823 14.5682 165.23 
75.2261 -15.4318 100.979 
105.86 4.66816 39.7199 
138.505 0.684382 39.9855 
-24.2852 -15.4318 137.523 
-36.5535 14.5682 185.836 
-23.4926 -15.4318 142.333 
42.3612 13.1533 20.5522 
11.8899 14.3603 13.4047 
-71.9518 14.5682 167.267 
-29.9755 17.6616 -6.14392 
62.7912 -15.4318 98.6033 
-16.108 -18.4372 -10.7364 
3.79362 13.032 21.2705 
-31.8056 14.5682 133.226 
115.073 4.33055 39.7559 
-1.50202 -15.4318 210.679 
19.3118 -15.4318 69.7995 
96.1248 -17.1818 -3.3027 
30.3061 14.5682 175.88 
-24.1343 -15.4318 97.549 
-93.8139 -8.00643 39.1835 
101.309 9.75811 38.7855 
67.0486 -13.6719 17.4814 
126.559 -12.5817 23.937 
123.395 11.1154 32.6197 
65.9829 -12.2262 190.862 
-0.61831 14.5682 200.343 
21.7469 16.8758 -1.49073 
151.833 17.9252 -7.70498 
-27.3714 9.67393 43.921 
-86.2789 -6.7393 104.047 
149.111 16.8869 -1.55631 
33.9941 14.5682 64.313 
166.74 14.1181 14.8389 
-76.3439 14.5682 147.165 
89.0849 -15.4318 135.71 
-42.3521 16.8407 -1.28302 
-39.3905 -15.4318 127.548 
-17.4555 14.5682 176.877 
86.5444 12.7002 154.351 
63.6732 -11.6589 29.4015 
-27.1158 14.5682 187.983 
-24.3713 -15.4318 114.705 
54.175 2.84255 201.523 
-7.43335 14.5682 74.089 
-78.6953 -7.99091 85.988 
88.378 19.4698 -16.8512 
-33.184 14.5682 199.704 
62.281 -13.353 19.3697 
-10.7913 -15.4318 192.274 
-58.4431 -5.7044 39.5827 
-125.32 13.0045 21.4332 
75.692 6.7775 80.9692 
26.417 -15.4318 115.45 
-103.915 -15.6646 5.68142 
-70.2757 11.2253 185.879 
60.3653 -17.3344 -4.2065 
164.765 15.9972 3.71181 
35.6798 14.5682 181.477 
28.9179 12.5767 23.9667 
0.459648 -13.8006 219.654 
-16.9426 -15.4318 61.8444 
-141.991 18.3338 -10.1241 
-65.0208 10.3655 191.881 
90.9369 6.07044 39.5278 
-135.512 -16.171 2.68302 
87.2821 -14.9516 151.592 
160.399 14.6007 11.9817 
-68.0458 -15.4318 106.091 
-14.3072 5.8773 40.8018 
-77.0273 -7.51256 176.203 
176.529 19.9137 -19.48 
-136.013 15.1689 8.61669 
88.7803 19.3623 -16.2148 
-44.3753 18.4831 -11.0084 
151.232 15.9951 3.72455 
50.4874 -16.1919 2.55937 
12.1895 -15.4318 198.606 
-81.8609 14.5682 128.107 
50.6522 0.249687 204.047 
-65.9651 14.5682 103.221 
12.997 9.27268 38.9011 
-69.2451 -3.8979 187.146 
88.2272 -1.62026 147.424 
-81.7791 14.5682 125.713 
-116.535 13.6145 17.8214 
-89.8671 -1.65546 134.466 
-64.399 14.5682 153.789 
-23.6778 -9.3058 216.484 
-58.2398 -15.4318 122.61 
-117.054 -7.55115 39.2716 
154.541 -15.6063 6.02681 
-89.992 8.30261 130.825 
-4.54402 -10.8639 34.1094 
-117.36 -17.3571 -4.34068 
-32.899 14.5682 175.252 
-157.398 -13.9362 15.9164 
12.2819 -15.4318 183.926 
-77.1765 12.2996 83.3584 
44.5396 14.5682 176.196 
131.087 15.9303 4.10795 
-33.2072 11.9932 46.01 
72.2629 14.5682 117.37 
-13.6008 14.5682 78.1969 
60.9968 -15.4318 93.4952 
-125.277 -14.7181 11.286 
-131.411 2.73024 39.8981 
-121.999 -11.9463 27.6998 
-36.2999 -15.4318 174.141 
42.9339 -15.4318 130.496 
117.958 -3.14032 39.8719 
61.6462 14.5682 144.746 
64.2975 -15.4318 98.809 
-86.1377 -7.05797 155.733 
44.8483 14.5682 153.995 
89.272 -3.17561 141.068 
-162.404 19.0471 -14.3482 
75.5185 14.5682 84.1898 
-2.26401 14.5682 141.526 
75.05 14.5682 120.599 
-29.8109 14.5682 138.129 
-154.976 -19.61 -17.6815 
53.811 -15.4318 85.6767 
108.005 -13.5116 18.4303 
87.2885 10.2308 37.8583 
86.3526 8.29193 155.016 
-70.4784 14.5682 175.471 
-55.308 -7.76004 39.2312 
51.4573 14.5682 92.7226 
-25.0579 12.2202 26.0777 
52.5221 16.9796 -2.1052 
35.4107 14.5682 110.377 
39.8535 -11.0697 32.8905 
-35.5539 14.5682 142.336 
26.7209 -15.4318 206.229 
31.2885 14.5682 91.6626 
96.4754 16.0904 3.16001 
-25.1027 -15.4318 175.859 
46.3946 -18.9859 -13.9859 
67.1235 -15.4318 156.071 
23.3992 13.4814 18.6092 
14.7436 14.5682 99.1925 
27.8188 14.5682 120.942 
56.6394 -15.4318 114.599 
82.1726 14.5682 100.07 
34.2833 -0.933692 212.87 
-18.2545 16.4657 0.938045 
-127.512 10.6228 35.5369 
-31.7948 -8.02734 45.4608 
37.9609 -15.6078 6.01807 
75.4844 14.5682 142.168 
-46.5892 12.7792 22.7674 
-78.6697 -12.3841 173.367 
-51.9034 -15.4318 159.474 
-0.711507 -11.0029 219.653 
62.0728 -19.1327 -14.8552 
-7.72108 14.5682 46.9454 
55.0608 -13.7739 16.8776 
-36.889 -15.4318 126.721 
-29.1554 14.5682 195.014 
-71.1597 -15.0958 74.5652 
25.5246 14.5682 181.512 
27.6906 14.5682 118.021 
-25.1126 -15.4318 110.154 
10.5412 14.505 12.5481 
86.1631 8.59888 155.649 
17.4834 -15.4318 138.894 
42.4186 -16.1473 2.82325 
76.1244 -15.4318 147.825 
4.61218 14.5682 58.4541 
-60.9413 14.5682 146.049 
-17.6702 14.5682 82.8136 
-111.107 -0.0604518 39.9987 
16.4356 14.5682 43.208 
94.6859 10.9757 33.447 
-89.6035 12.3023 25.5918 
91.6315 14.0968 14.9651 
-5.04726 14.5682 109.306 
-40.9531 -15.4318 99.246 
89.9704 -4.97397 131.94 
-39.3724 -15.4318 173.143 
-158.532 11.9025 27.9589 
-74.3028 -15.4318 161.138 
75.558 14.5682 91.4772 
111.485 15.3609 7.47992 
14.1513 -15.4318 110.748 
37.0281 -9.45465 211.684 
15.259 -15.4318 111.311 
4.83012 11.5436 39.7903 
37.0028 -15.4318 133.488 
-5.74852 -15.4318 152.857 
-83.6894 14.5682 116.272 
10.9047 -15.4318 134.049 
84.4836 -15.7676 5.07172 
38.2707 -15.4318 85.6218 
-136.474 -13.0741 21.0214 
87.6816 8.4367 39.1001 
-33.3974 -14.038 46.0871 
48.8505 14.5682 121.378 
38.5248 14.5682 109.753 
-135.12 -17.5919 -5.73131 
-55.3943 14.5682 153.104 
57.1875 17.2783 -3.87417 
12.8398 14.5682 57.0306 
-37.1791 8.63248 211.616 
33.3987 14.5682 63.1981 
-79.5498 -7.97233 87.5659 
-61.0223 -14.0265 15.3813 
-83.7133 14.5682 146.111 
21.8245 0.579328 42.3439 
64.4458 14.5682 77.5285 
-67.5483 -15.4318 180.064 
-62.9209 3.78565 65.3112 
-10.9685 14.5682 187.989 
-54.8198 14.5682 186.99 
58.5826 -15.4318 118.113 
-9.75209 14.5682 173.873 
30.8366 -15.4318 48.2219 
84.346 -10.349 161.049 
-54.5419 -15.4318 188.924 
55.211 18.6974 -12.2772 
53.754 -15.4318 91.4954 
-19.6392 14.5682 103.899 
-89.9862 12.8926 130.98 
-76.318 14.5682 171.369 
43.2241 -15.4318 193.342 
-70.108 11.8333 73.2242 
-24.3989 14.5682 187.776 
40.1609 14.5682 92.3428 
10.3855 14.5682 138.605 
-138.552 -11.5946 29.782 
45.8107 -15.4318 131.246 
15.8209 -10.7171 41.0612 
-45.0657 -15.4318 64.11 
-11.1321 -13.5228 18.3643 
52.053 14.5682 197.328 
71.036 9.11149 74.397 
-47.659 -15.4318 192.907 
-53.3175 -14.398 13.1818 
121.277 -12.8929 22.0941 
-70.5508 16.4104 1.26515 
-31.9081 14.5682 154.913 
41.324 2.25297 209.607 
-73.5189 13.1427 20.6152 
7.32756 12.7877 22.7172 
130.216 -4.63614 39.7233 
-1.88296 14.5682 112.57 
-75.7201 -9.47754 178.299 
56.7976 -19.6598 -17.9765 
-46.5353 14.5682 156.261 
162.915 -13.3789 19.2163 
16.031 -15.4318 162.971 
6.45314 -16.6214 0.0159426 
44.7124 -15.4188 51.5496 
16.3101 -15.4318 77.2209 
64.4157 0.720697 66.8063 
73.2059 1.21383 77.305 
-77.8337 14.5682 164.36 
-34.7523 -15.4318 60.9342 
88.6448 16.6146 0.0559621 
-8.29423 14.5682 45.5299 
-0.0201404 -15.4318 62.0051 
-4.08104 -15.4318 188.708 
-50.6349 -15.4318 139.034 
-42.909 14.5682 83.0414 
72.4121 12.4722 24.5858 
37.8229 14.5682 180.656 
29.0504 -15.4318 171.645 
76.8551 14.5682 121.016 
86.7132 8.14287 105.562 
30.8621 -15.4318 173.372 
-21.4916 -15.4318 139.182 
-15.5505 14.5682 197.007 
-13.3853 -6.36664 40.6585 
-23.4948 -1.90998 42.7774 
91.0676 -19.988 -19.92 
2.38029 -15.4318 130.521 
-150.303 -18.9341 -13.6789 
57.0193 -15.4318 66.6802 
-58.4939 11.5778 198.052 
16.0916 -15.4318 148.107 
-12.1642 12.8569 22.3074 
42.0566 -15.4318 191.139 
-13.0527 14.5682 178.044 
-20.2053 -15.4318 122.049 
-44.5838 14.5682 85.2027 
-74.489 -13.4457 18.8207 
-129.326 10.6466 35.3959 
44.5082 13.1541 20.5474 
-69.1062 14.5682 97.6866 
-13.1297 15.4075 7.2039 
-17.3418 14.5682 152.767 
51.697 -15.4318 100.057 
-36.962 -9.3534 47.5981 
69.6235 14.5682 73.2023 
-88.748 -12.6466 23.5529 
-40.5302 14.5682 125.643 
-4.28643 -15.4318 137.934 
-141.362 12.6939 23.2726 
93.2388 17.1504 -3.11683 
-41.2367 -15.4318 184.832 
52.4702 11.3097 31.4695 
105.282 -16.6004 0.139892 
73.7967 -13.6644 78.145 
38.735 11.255 31.7933 
13.1917 -16.0723 3.26744 
-2.4807 11.5532 30.0274 
-10.3644 14.5682 138.167 
-93.169 18.6972 -12.2763 
173.823 12.4956 24.4468 
-23.6306 18.8536 -13.2025 
-12.9363 -11.0284 33.1348 
54.1974 14.5682 85.8881 
15.6916 -19.7603 -18.5713 
-84.8177 14.5682 153.041 
161.058 12.0203 27.2617 
30.5053 -12.0578 27.0395 
82.4699 8.59691 93.6217 
-71.055 14.5682 93.9402 
-147.374 -15.848 4.5953 
-74.022 12.3255 25.454 
11.2266 -15.4318 96.1387 
-15.4685 -15.4318 143.515 
-106.176 -11.6317 29.5625 
97.3576 -19.9331 -19.5944 
113.532 17.423 -4.73106 
80.8418 -6.19452 169.208 
-20.701 -15.4318 48.3411 
-117.878 1.88385 39.9521 
74.9964 -18.2236 -9.47147 
1.08793 -15.4318 82.9202 
140.316 12.1901 26.2562 
81.235 4.44714 168.396 
15.4311 14.5682 217.568 
-101.653 -12.5985 23.8378 
-80.5463 14.5682 95.7542 
52.2087 17.6278 -5.9436 
-106.437 -13.747 17.0366 
-82.7553 5.73524 94.2828 
53.1899 14.5682 115.248 
17.6058 14.5682 171.727 
-54.9154 -13.0571 200.956 
81.0637 14.5682 168.702 
-66.4225 -7.91425 190.383 
-70.4236 14.5682 146.202 
-123.263 -5.29203 39.6445 
5.1421 14.0496 39.8051 
-62.6576 2.11351 39.9374 
97.5199 -15.1336 8.82556 
28.0871 -17.5818 -5.67127 
46.0909 14.5682 135.316 
137.585 6.26334 39.4989 
172.497 -13.4811 18.6113 
-1.11842 14.5682 91.9399 
60.8503 -10.1272 63.3469 
-19.058 -15.4318 89.2959 
-87.4997 8.74407 150.716 
-17.5631 4.44149 217.924 
-12.9874 5.01769 218.714 
-71.7861 14.5682 179.017 
121.839 -14.4296 12.9945 
-37.6891 14.5682 95.6904 
-10.8492 14.5682 58.57 
39.9506 -15.4318 158.329 
37.4306 -15.4318 99.7461 
90.2719 -10.4882 36.3337 
58.236 14.5682 77.775 
-54.8319 -2.41236 201.022 
82.2573 14.5682 154.385 
15.5809 -1.03063 41.0204 
-57.414 14.5682 83.0287 
-0.868731 14.5682 213.669 
172.067 -10.9285 33.7266 
112.948 -19.7756 -18.6621 
-97.6756 18.2521 -9.64021 
157.436 -17.2995 -3.99966 
80.0235 1.39272 39.9704 
84.0184 1.92258 97.3957 
-27.7321 9.61167 215.276 
-69.4333 14.5682 155.996 
-40.3334 -15.4318 200.119 
16.9253 14.5682 150.993 
-30.0997 -0.455056 214.472 
-69.3344 -15.3072 72.2826 
-29.6573 -0.561817 44.6844 
89.5351 1.77392 120.534 
163.607 15.0992 9.02962 
36.132 -13.3624 19.3139 
43.8549 14.5682 150.759 
182.758 5.37351 39.6322 
-68.0886 14.5682 131.591 
32.0848 -10.7601 34.7238 
125.806 13.9459 15.8589 
-124.366 -1.51823 39.9677 
9.14437 14.5682 184.046 
-137.7 13.1621 20.5002 
-57.4932 -11.3264 31.3702 
-28.4702 -17.4044 -4.62095 
65.9318 -8.72236 190.917 
-64.8342 3.62065 67.2362 
-8.69764 14.5682 115.113 
28.5686 -15.4318 203.667 
-90.8375 12.2833 25.7039 
-23.7219 14.5682 143.279 
-77.6997 -10.4187 175.074 
-9.08784 14.5682 45.8607 
9.96225 -14.2859 13.8457 
-132.237 -17.8299 -7.14053 
-47.6569 13.8722 16.2955 
-45.5949 14.5682 119.824 
66.3224 14.55 190.486 
-31.3382 8.53196 214.022 
-80.5201 14.5682 156.038 
-32.9821 14.5682 141.562 
141.072 7.22873 39.334 
67.3251 -7.06108 189.382 
140.341 -10.7886 34.5549 
118.869 14.2388 14.1244 
132.675 15.0887 9.09197 
150.932 11.6473 29.4699 
-81.9352 -6.71374 166.892 
-14.1673 14.5682 166.907 
-117.721 -15.9851 3.78349 
-54.0917 -15.4318 143.591 
-100.548 -16.1108 3.03909 
27.2918 14.5682 155.406 
-71.9302 14.5682 89.8138 
-2.20987 14.5682 62.5084 
83.7852 14.5698 12.1647 
-9.14521 14.5682 84.3817 
13.9705 14.5682 63.2744 
68.7236 -15.4318 140.417 
-30.2228 -15.4318 49.7719 
-2.93739 14.5682 83.3521 
115.739 16.3449 1.65293 
108.828 17.5822 -5.67372 
-81.3837 -15.4318 115.654 
153.278 -16.4283 1.15938 
-86.7689 10.1793 38.1631 
26.5785 -15.4318 43.9435 
50.5736 -15.4318 117.869 
62.9918 14.5682 167.676 
-11.918 6.50496 40.4487 
-31.0648 -15.4318 103.729 
6.36922 -15.4318 188.808 
92.6992 -19.6933 -18.1749 
-48.0938 14.5682 112.38 
146.818 -2.69462 39.9004 
76.584 -15.4318 169.594 
35.8178 -15.4318 55.8544 
57.9355 -12.3553 25.2777 
20.9968 -2.96548 217.171 
-0.47377 14.5682 89.835 
-79.0465 -0.982049 39.9791 
-14.8444 14.5682 128.51 
42.5463 -10.9426 33.6429 
-81.4168 -15.4318 165.941 
8.90149 -10.7074 35.0359 
177.456 -5.52457 39.6096 
71.9266 1.01644 75.56 
68.2461 -3.20154 70.9858 
146.024 15.0328 9.42289 
-30.8922 14.5682 178.423 
47.3603 -18.575 -11.5526 
172.271 -15.7087 5.42034 
117.38 -15.8953 4.31529 
-66.994 14.5682 97.566 
19.1364 -17.4053 -4.62583 
-21.9431 -15.6955 5.49862 
-55.7574 -15.4318 84.7923 
34.6245 -15.4318 206.526 
-136.826 -17.2193 -3.52483 
59.9907 14.5682 64.0086 
58.7772 5.18097 197.81 
-35.7121 16.6093 0.0874192 
-20.3966 -15.4318 112.013 
-120.424 12.4135 24.9331 
66.1172 11.1357 190.715 
-80.0796 -19.6307 -17.8037 
-80.8183 -17.5306 -5.36822 
65.4518 -15.4318 140.169 
129.078 1.0088 39.9786 
89.8315 10.5903 124.264 
-22.6959 -9.50238 42.5657 
-6.41132 14.5682 161.908 
-89.6213 4.53728 137.886 
38.6188 -17.984 -8.05282 
58.2545 -15.4318 89.945 
62.642 14.5682 152.347 
168.493 -0.0838873 39.9982 
11.7173 14.5682 149.54 
-89.9334 8.04987 133.095 
58.3452 -15.4318 161.014 
-57.7814 -2.47527 198.657 
57.4984 18.887 -13.4001 
-89.063 1.33575 142.609 
-24.4729 14.5682 96.1746 
29.6373 17.9546 -7.87894 
-14.0501 -15.4318 54.6824 
-30.6427 7.97161 45.0349 
115.696 -18.4776 -10.9755 
65.8892 14.5682 106.454 
71.3901 -15.4318 161.028 
-37.6614 1.33181 211.396 
-24.9244 13.3886 216.133 
-90.7322 13.3122 19.6115 
72.9833 -16.1772 2.64637 
138.909 -11.4239 30.7928 
149.83 -13.4926 18.5431 
-76.154 14.5682 149.463 
176.555 -18.7827 -12.7823 
32.2186 11.429 30.7628 
44.2407 -8.82745 39.0071 
54.1411 -15.4318 158.811 
143.018 -8.69026 39.0397 
-36.2881 14.5682 162.688 
17.1989 -15.4318 124.505 
116.31 15.7288 5.30131 
16.5184 -15.4318 109.832 
67.4501 -15.4318 121.069 
-161.735 -19.5146 -17.1165 
10.2664 -15.4318 119.267 
170.362 -10.6164 35.5746 
-15.2533 14.5682 163.982 
-63.6163 -15.4318 178.007 
-9.76138 14.5682 48.2077 
179.156 -15.1136 8.94418 
9.29754 -15.4318 157.515 
-5.40405 14.5682 126.56 
-28.4678 14.5682 167.536 
-1.49408 -15.4318 85.7749 
67.8875 14.5682 137.014 
165.019 14.6772 11.5282 
100.938 14.8753 10.3551 
0.263349 -15.4318 45.4942 
141.804 15.781 4.99215 
23.5865 -3.02948 216.51 
49.9765 13.4763 18.6394 
-48.7501 -15.3731 54.0087 
18.158 -15.4318 106.223 
67.7226 -15.8718 4.45484 
-124.286 11.0488 33.0139 
11.0147 18.9922 -14.023 
-29.0804 14.5682 196.691 
-126.762 11.638 29.5253 
-27.9566 -15.4318 78.0168 
16.3265 14.5682 70.9362 
48.2651 -15.4318 200.853 
-36.3551 -15.4318 154.18 
162.833 -10.6873 35.1547 
21.2301 11.3678 42.1981 
29.7329 -19.0903 -14.6042 
-0.823204 -15.4318 194.92 
-36.1511 14.5682 130.179 
-86.8631 -19.3684 -16.2506 
175.187 -11.6559 29.4194 
-2.88815 -17.8145 -7.04942 
177.108 -18.0809 -8.62655 
-5.70506 -11.7403 28.9194 
88.707 5.46355 144.817 
32.393 -15.4318 167.918 
39.306 14.5682 118.393 
-28.6223 14.5682 90.0807 
-154.575 13.2768 19.8211 
-11.5066 13.1742 20.4287 
10.9354 14.5682 155.302 
62.675 -1.44568 39.9693 
-28.5822 15.3934 7.28773 
74.7013 0.170525 179.85 
75.1075 -15.7924 4.9245 
108.544 -11.2968 31.5457 
-72.0328 7.0888 75.7025 
42.6062 14.0627 15.1671 
130.121 1.3863 39.9705 
-40.5277 -15.4318 125.963 
-63.5625 14.5682 148.077 
46.7474 14.5682 135.697 
24.9059 -10.0355 38.7195 
181.08 19.7237 -18.3549 
20.5116 10.9036 33.8742 
24.6014 -15.4318 193.768 
33.3149 14.5682 72.8467 
155.06 18.2435 -9.58974 
-36.0092 -15.4318 116.267 
37.688 -15.4318 144.4 
87.9271 14.5682 137.943 
13.2896 14.5682 211.315 
-41.6871 -10.4753 36.4104 
2.95076 -15.4318 62.4043 
-55.3095 -15.3766 7.38692 
-89.3862 -6.31114 140.137 
-153.215 18.7585 -12.6394 
7.26682 14.5682 211.337 
-71.5254 -15.4318 125.242 
-3.5136 -15.2852 7.92821 
-147.655 18.7432 -12.5483 
11.7445 -15.4318 47.9168 
-52.1047 14.5682 57.414 
169.675 16.9889 -2.16046 
28.9003 14.5682 155.825 
72.7279 -15.2703 182.662 
-11.9427 -15.5548 6.33142 
4.19 14.5682 94.6604 
89.5376 19.5317 -17.2174 
-77.6536 -1.6831 84.1625 
-19.7086 -15.4318 93.0994 
-15.0327 -15.4318 184.899 
-152.959 -15.8449 4.61373 
-75.3899 -15.4318 80.586 
-37.3653 -13.0629 21.0874 
89.4718 -6.71666 139.388 
66.6328 -15.4318 76.8934 
-12.6271 -15.4318 100.544 
-80.8372 -3.56104 169.204 
147.63 -11.0334 33.1055 
84.2774 -12.7673 98.0806 
-16.3478 14.5682 100.784 
24.839 14.5682 54.8241 
-11.499 14.5682 157.257 
34.8336 14.5682 109.858 
-18.9078 14.5682 103.898 
83.1826 17.5819 -5.67176 
-111.791 -10.9025 33.8806 
118.755 -19.3598 -16.1998 
-24.9924 -15.4318 52.7298 
62.6242 14.0056 65.0226 
61.8614 14.5682 193.606 
32.9764 14.5682 153.667 
72.6247 15.0608 9.25669 
-50.1394 14.5682 135.154 
156.79 16.5678 0.333436 
164.603 3.7674 39.816 
16.3868 -1.48447 218.15 
2.59616 -12.3762 25.1541 
20.5258 -15.4318 158.589 
2.96126 0.335747 219.606 
103.896 -1.27826 39.9728 
18.7476 -15.4318 115.241 
5.51101 8.41058 39.1053 
-37.7154 14.5682 67.348 
81.086 14.5682 159.152 
69.5442 -15.3307 7.65881 
-71.4764 -15.4318 103.73 
22.0463 -15.4318 61.3963 
-136.467 11.9763 27.5219 
31.3288 -1.77839 39.9588 
-50.0534 -15.1185 8.91539 
135.433 -4.09026 39.7815 
-28.1057 14.5682 72.2351 
56.4765 15.3364 7.62485 
-22.7161 -11.879 28.0983 
75.497 14.5682 88.207 
102.804 12.636 23.6158 
-7.32474 -15.4318 72.934 
-91.9233 -18.1346 -8.94447 
-17.17 -8.70831 39.0354 
113.013 -13.1462 20.5945 
-3.20734 -15.4318 97.1082 
-19.9206 -19.5079 -17.0771 
144.459 -4.0099 39.7901 
8.12091 -15.4318 64.5879 
84.3663 -15.4318 149.728 
-30.1538 -19.2011 -15.2603 
-12.0628 -15.4318 217.689 
-54.6595 14.5682 96.9877 
-77.9854 -15.4318 115.036 
-74.444 -17.1743 -3.25817 
-0.150215 -15.4318 179.078 
-69.4229 -15.4318 92.2108 
-48.6462 14.5682 77.8343 
83.4653 -10.8343 95.9928 
-144.4 -3.44859 39.85 
87.7335 14.5682 143.921 
-78.8594 10.6371 35.4519 
-30.3418 14.5682 47.2932 
-149.587 16.8861 -1.55189 
-77.9912 17.6994 -6.36738 
40.3255 -15.4318 198.017 
-62.9896 14.5682 123.892 
31.3301 14.5682 157.477 
113.855 -18.3237 -10.0648 
17.0898 14.5682 66.3463 
21.1434 -15.4318 55.4715 
121.533 -11.0727 32.873 
11.5285 15.1049 8.9957 
-18.2366 -15.5131 6.5788 
-10.5823 -15.4318 95.2343 
-148.382 11.9561 27.6415 
125.88 10.2389 37.81 
89.443 -12.6718 119.713 
159.046 -19.9876 -19.9176 
152.151 -13.6909 17.3687 
160.098 -10.3512 37.1452 
-2.17613 9.88326 219.629 
140.14 17.9811 -8.03566 
-88.7592 14.9548 9.88453 
-23.0363 -15.4318 201.724 
-71.3718 14.5682 103.555 
105.292 14.8577 10.4598 
-89.8534 13.6806 134.69 
67.7161 14.5682 128.116 
71.8454 14.5682 126.959 
-1.77651 14.5682 217.894 
2.70753 -15.4318 200.676 
85.3857 -10.4649 36.472 
3.83089 12.5366 24.2043 
-62.8601 17.1857 -3.32564 
33.8138 14.5682 65.0288 
6.28291 10.5539 35.945 
17.7411 3.7668 41.4235 
63.9058 14.5682 174.002 
53.2215 -15.4318 167.958 
-10.625 -15.1105 8.96242 
46.8503 -15.4318 164.147 
23.7022 14.5682 75.2767 
-16.2696 14.5682 141.841 
-152.977 -17.0899 -2.75846 
38.6228 14.5682 131.925 
35.0631 15.1841 8.52652 
31.5341 14.5682 209.914 
52.9844 -9.26355 38.9033 
101.588 12.8326 22.4514 
-29.6766 -15.4318 212.009 
0.17448 -12.6121 23.7572 
130.979 14.4763 12.718 
142.872 -15.7679 5.06998 
41.7269 -15.4318 207.745 
39.9238 14.5682 114.219 
-54.1742 -15.4318 140.267 
-136.816 14.6093 11.9306 
107.604 -19.6836 -18.1174 
-75.5067 6.03766 80.682 
140.497 18.1473 -9.02014 
45.4511 -15.4318 91.7239 
-9.54321 14.5682 115.418 
11.5206 14.5682 43.7253 
-88.8303 -7.15347 144.109 
-74.7266 -16.4239 1.18516 
-65.579 -1.87325 68.0193 
27.5094 -15.0606 9.25826 
-103.73 15.4046 7.22095 
40.8482 -11.7862 28.6474 
47.994 14.5682 177.884 
123.878 -13.785 16.8117 
-42.1361 -15.4318 148.148 
-39.9797 -19.6238 -17.7628 
14.0126 -15.4318 171.163 
-75.9721 -15.4318 177.87 
52.5103 14.6101 11.9258 
18.3023 -18.2712 -9.7535 
6.62738 -10.8791 34.019 
14.0259 -15.4318 78.7555 
44.8618 14.5682 100.974 
-22.983 14.5682 176.44 
-19.4883 14.5682 119.276 
4.67702 -15.4318 64.9397 
52.4373 15.7223 5.33963 
-34.7483 -17.9599 -7.91023 
79.4428 14.5682 97.4433 
3.71429 -14.9548 9.88469 
-73.8006 -14.7277 11.2294 
-42.0798 14.5682 149.154 
-20.7661 14.5682 186.351 
-42.4039 14.5682 167.357 
130.87 -11.4496 30.6411 
89.4341 2.61078 139.719 
-84.405 11.0237 33.163 
-2.91698 -12.8003 22.6428 
13.0794 14.5682 77.5896 
25.1339 -15.4318 135.952 
63.8309 11.5599 66.2186 
-83.4422 14.5682 154.14 
-145.004 -7.62183 39.2579 
-42.6806 14.7109 11.3292 
-46.9326 16.1925 2.5555 
15.3351 14.5682 134.992 
-105.87 14.0128 15.4628 
55.4494 -15.4318 177.619 
-44.7052 14.5682 67.8579 
-108.74 -7.36244 39.3082 
-1.1824 13.1213 20.7419 
-64.9921 14.5682 156.818 
-113.215 -11.9235 27.8348 
-94.6396 -12.7412 22.9928 
47.3925 -15.4318 189.133 
-135.852 -1.35333 39.9712 
59.8173 9.20992 196.899 
-11.3063 14.5682 169.84 
58.9697 -19.8732 -19.24 
-42.8096 -15.4318 138.806 
148.877 -0.380791 39.9919 
61.6956 -15.4318 84.2542 
84.6915 -15.4318 137.476 
-111.548 19.7266 -18.3719 
-13.4716 14.5682 66.2834 
-22.6951 14.5682 109.028 
35.5357 -15.4318 165.367 
-70.703 -15.4318 86.2738 
-19.7266 14.5682 147.312 
24.2453 14.5682 145.215 
-40.7637 14.5682 94.5022 
-50.7631 14.5682 97.6911 
-59.2363 -15.4318 176.412 
5.52496 -15.4318 167.544 
-36.4875 -15.4318 177.645 
65.7921 6.64463 68.247 
41.021 18.3991 -10.511 
-79.4624 -15.4318 94.3181 
-61.6763 -15.4318 115.128 
-56.0006 -12.0515 27.0767 
64.3648 -12.5242 24.2778 
21.3845 -15.4318 102.023 
-40.1367 -3.23353 210.209 
-120.304 13.8912 16.1827 
32.476 -15.4318 77.4973 
-149.65 -18.387 -10.4393 
177.763 16.7915 -0.991226 
-30.5723 -15.4318 168.903 
180.996 -14.757 11.0558 
-145.274 -10.7518 34.7728 
-43.0456 -15.4318 133.443 
4.30013 -15.0553 9.28927 
40.779 14.5682 126.985 
-29.6562 -15.4318 56.6495 
-121.166 15.8377 4.65621 
74.3145 -15.4318 157.355 
161.226 -19.5483 -17.3163 
-80.179 13.3393 88.775 
-131.09 -15.3416 7.59426 
-23.2906 14.5682 68.2526 
-1.88794 10.2625 37.6702 
-17.701 12.9925 21.5043 
-116.528 14.3169 13.6621 
40.5847 17.1782 -3.28127 
62.7302 14.5682 100.981 
-52.3098 15.5864 6.14442 
-86.238 12.1454 155.404 
-144.874 -18.8165 -12.9824 
64.4504 1.39711 192.473 
70.807 -15.4318 145.442 
-30.828 -15.4318 82.2199 
-86.6132 10.509 154.109 
119.151 -14.0059 15.5035 
18.8059 -15.4318 97.8859 
46.1357 14.5682 123.989 
72.91 14.5682 93.1029 
102.803 10.4816 36.3731 
-15.3776 -8.50164 39.0846 
-117.849 -11.9407 27.7329 
17.0914 -15.4318 100.642 
-156.101 -13.1992 20.2802 
69.791 -1.33169 72.8316 
-18.2636 -15.4318 132.014 
50.7999 17.508 -5.23439 
47.3402 13.92 206.192 
86.8627 0.321783 106.101 
19.2381 14.5682 106.309 
34.7007 14.5682 206.391 
75.5949 -3.03592 178.495 
-67.8327 14.5682 169.585 
-25.7676 -9.05074 215.887 
82.4354 14.5682 144.753 
120.875 13.1424 20.6169 
-13.6691 14.5682 132.514 
164.76 19.1436 -14.9197 
-111.083 13.507 18.458 
1.45276 -10.6861 35.1618 
180.687 12.5259 24.2678 
-36.1627 -15.4318 171.253 
101.495 19.7755 -18.6617 
61.5356 -15.4318 126.49 
-77.6764 14.5682 129.496 
8.31118 -15.4318 202.623 
25.826 14.5682 198.738 
-79.5567 -16.3412 1.67505 
0.810457 14.5682 53.9396 
-127.764 -8.99071 38.9682 
-163.761 -18.4958 -11.0834 
136.21 -10.1614 38.2689 
35.2032 -15.4318 103.522 
-143.339 -15.2761 7.98185 
82.4493 -4.22919 93.574 
32.4349 14.5682 71.0885 
54.627 11.1061 32.675 
-24.389 14.5682 68.5986 
77.7445 -15.4318 84.5042 
-28.0353 -15.4318 165.754 
9.42296 13.883 16.2313 
-0.621593 -15.4318 138.867 
74.179 5.71107 39.5817 
119.271 17.1265 -2.97509 
44.6044 14.5682 199.588 
-18.5896 -15.4318 100.766 
-13.1263 14.5682 165.752 
48.7524 14.5682 191.097 
53.3787 -18.3824 -10.412 
89.9886 12.301 131.013 
28.127 -10.557 44.1658 
1.42106 -15.4318 120.002 
-75.8069 0.842029 178.165 
-27.1672 -15.4318 169.992 
-104.762 17.241 -3.65341 
101.842 19.2451 -15.5207 
-114.642 15.2782 7.96989 
35.9804 14.5682 141.501 
-14.4298 -5.4747 40.8219 
95.0092 -18.3913 -10.4651 
-145.277 -15.784 4.97445 
-5.49609 14.5682 72.8038 
48.5149 -15.4318 104.759 
-78.6819 -16.1922 2.5571 
-80.2496 10.2851 37.5364 
-104.863 -16.0038 3.67301 
-35.1088 9.0142 46.7873 
132.843 15.6382 5.83801 
-24.8231 -4.75626 43.148 
61.6325 7.15949 195.24 
11.5301 14.5682 199.543 
-146.809 11.4751 30.4897 
-31.5947 -15.4318 133.435 
-50.7527 -19.7056 -18.2476 
-13.7083 -15.4318 78.8076 
-52.585 9.7798 38.7804 
76.5555 13.9286 176.967 
-5.74832 14.5682 105.399 
-28.9809 -15.4318 136.395 
46.5555 -4.60516 39.7266 
-96.9126 7.09866 39.3592 
-8.95566 14.5682 148.116 
150.281 -12.279 25.7295 
-89.9683 -10.6744 127.302 
43.2377 14.5682 183.006 
72.059 -1.27513 39.9729 
-7.51361 16.2755 2.06392 
20.9065 -15.4318 159.219 
172.639 17.1999 -3.40992 
-75.4924 -15.0333 9.41956 
-76.061 -15.4318 174.938 
14.3152 -12.4343 24.8101 
76.0729 -15.4318 165.946 
-35.0231 -15.4318 87.6738 
145.434 -19.7054 -18.2461 
68.2661 14.5682 135.929 
146.876 -6.90743 39.3962 
-24.1426 14.5682 59.9526 
178.697 19.1595 -15.0135 
17.7113 -15.4318 128.029 
69.0893 -15.4318 162.084 
8.00263 14.5682 126.109 
-34.2695 -19.6503 -17.9198 
140.246 18.789 -12.8199 
19.8879 14.5682 101.966 
64.8635 -15.4318 69.532 
13.946 -17.831 -7.14668 
35.497 14.5682 195.909 
-122.023 -13.0405 21.2201 
77.0147 14.5682 92.1039 
56.6694 14.5682 141.145 
49.4173 -15.4318 123.711 
65.9462 14.7905 10.8575 
182.124 16.5463 0.460772 
-30.816 -15.4318 56.5277 
47.5298 14.5682 69.2825 
144.541 18.3523 -10.2339 
-156.052 -13.8869 16.2081 
-9.9688 -11.328 31.3607 
-133.993 10.2797 37.5688 
-55.0782 7.68948 58.4792 
106.08 -19.4208 -16.5608 
161.336 -15.8405 4.63966 
67.0442 -15.4318 182.187 
126.515 -17.3072 -4.04516 
-41.4821 14.5682 125.383 
-13.6482 14.5682 180.702 
-10.4052 -15.4318 218.828 
65.9299 -12.2462 25.9239 
121.317 14.0295 15.3637 
-84.0238 10.8504 161.903 
-141.478 15.8107 4.81647 
-1.64083 6.92242 219.639 
5.33768 -11.6518 29.4436 
1.30757 -15.4318 149.156 
-4.53257 -15.4318 145.363 
32.7012 14.5682 84.8146 
65.08 -15.4318 135.034 
-68.4484 -5.97671 39.5419 
20.7452 14.5682 176.947 
88.0854 5.37674 111.196 
59.8067 12.6845 23.3284 
-144.014 19.9697 -19.8116 
109.062 17.1791 -3.28676 
-10.9371 -15.4318 148.349 
-160.559 -9.72283 38.7939 
-22.3841 5.4659 216.828 
-148.828 9.40162 38.8704 
34.7958 14.5682 111.951 
-19.9445 -15.4318 150.334 
80.3669 -7.71712 170.164 
-67.3982 8.58967 189.298 
-20.4202 14.5682 144.604 
12.5762 -15.6113 5.99732 
4.45577 14.5682 172.406 
-4.96589 -10.6677 39.7949 
33.6206 -10.5543 46.1723 
-89.9388 7.2685 132.969 
-80.9153 5.07394 169.044 
-9.5108 -15.4318 137.047 
-4.22622 14.5682 74.2993 
-14.5925 -15.4318 118.425 
-69.4314 14.5682 152.297 
32.4603 -15.4318 182.556 
60.1227 12.5564 24.0866 
50.7353 14.5682 198.574 
25.7222 4.44614 43.4113 
-7.99625 13.9343 15.9275 
-54.5569 14.5682 99.7253 
-30.3593 13.6291 17.735 
82.6398 14.9575 9.86843 
-117.414 12.6964 23.2577 
-78.1242 11.2807 31.6408 
-53.8426 14.5682 155.325 
-87.848 -16.274 2.07269 
-109.323 16.7377 -0.673187 
44.6376 -15.4318 198.867 
-17.3769 17.1616 -3.18287 
-2.19347 0.668028 39.9858 
10.8343 -17.6469 -6.05705 
53.6173 10.8175 34.3838 
76.0991 13.0773 177.7 
-152.403 16.1032 3.0846 
66.8179 -15.4318 110.647 
17.9333 14.5682 188.362 
17.5665 -15.4318 211.835 
78.862 -15.4318 150.634 
-19.6032 14.5682 207.247 
-47.5602 -1.21843 206.062 
-61.624 -15.4318 95.4195 
-0.725392 10.2529 39.6598 
64.5205 14.5682 146.15 
-125.386 -15.0571 9.27888 
-61.118 14.5682 100.518 
27.08 15.0483 9.3311 
-62.3724 14.5682 95.9922 
-160.594 18.5818 -11.5929 
-48.4469 -16.3786 1.45365 
-84.8818 0.654203 99.7421 
-30.5169 14.5682 127.565 
13.1377 -15.8213 4.75363 
51.943 2.39462 203.153 
-89.9824 -6.00722 131.349 
-59.9701 14.5682 157.537 
54.2464 -15.4318 124.573 
-31.9709 -19.6977 -18.2004 
75.4112 -6.5484 80.534 
-72.7661 14.5682 122.211 
-52.0666 14.5682 200.326 
63.5425 -15.4318 115.408 
43.0033 14.5682 118.49 
114.091 14.964 9.82999 
33.1747 -15.4318 131.372 
0.621765 17.1149 -2.90622 
33.6666 -15.4318 149.913 
-89.541 -2.4127 120.594 
-76.8141 16.0217 3.56709 
-28.6241 16.202 2.49932 
-23.2041 14.5682 148.163 
-27.3077 -15.4318 204.501 
69.1959 14.5682 181.615 
-78.9358 -15.4318 93.1568 
-79.8385 13.6557 171.186 
86.9841 14.5682 139.324 
-120.308 -17.4301 -4.77314 
48.1042 14.5682 56.4025 
-56.5556 14.5682 198.508 
-96.2302 19.8365 -19.0224 
-25.9797 -15.4318 93.6516 
-26.7456 14.5682 80.5716 
73.7771 -15.4318 167.443 
38.015 11.9947 27.4132 
25.2632 5.00025 43.2756 
-9.43243 13.6806 17.4301 
72.0076 14.5682 163.626 
173.404 16.5955 0.168936 
57.7613 6.18963 198.673 
-123.878 -18.4494 -10.8088 
72.6784 14.5682 168.566 
41.4399 10.8978 33.9083 
48.4495 -13.6106 17.8445 
-117.748 -16.6165 0.0445969 
182.045 19.2982 -15.835 
-17.2329 -15.4318 195.211 
-129.505 18.061 -8.50908 
18.5325 12.403 24.9951 
-61.6283 -7.53187 64.0687 
-122.889 13.1934 20.3151 
-57.3183 -15.327 60.2727 
-7.3619 -15.4318 177.509 
-6.22869 -15.4318 113.787 
48.3281 -11.1353 32.5019 
-66.0191 5.07363 190.822 
-123.648 17.9931 -8.1066 
-46.0957 -15.4318 159.911 
42.906 -5.28968 208.768 
-17.431 -15.4318 209.508 
-60.7291 -15.4318 170.003 
89.6355 -15.4598 6.89404 
-25.8938 14.5682 113.101 
